ncols         65
nrows         65
xllcorner     -100.0
yllcorner     -100.0
cellsize      3.076923076923077
2.898441217480963 2.9051886562396296 2.8954527910822727 2.88101606733206 2.8792364207880965 2.8738380091758886 2.8898611486272694 2.904168198620301 2.8955637899975315 3.6571390956595615 6.0 6.0 6.0 6.0 6.0 6.0 6.0 6.0 6.0 6.0 6.0 6.0 6.0 6.0 5.827187359601806 3.7506700803350084 3.0938337799526625 2.9741657084460993 2.8165516029225004 2.5900904151734037 2.200744995134796 1.3903339494555735 1.0872570047240506 1.8707581664038688 2.4575842751319468 2.742461706478889 2.9293109629573553 3.066440149391967 3.7388850185162164 6.0 6.0 6.0 6.0 6.0 6.0 6.0 6.0 6.0 6.0 6.0 6.0 6.0 6.0 6.0 6.0 6.0 7.004402972409207 7.762298016636908 7.762298016636908 7.004402972409207 6.0 6.0 6.0 6.0 6.0 
2.8880383327489945 2.9127387599244843 2.880052261729436 2.9003045977537387 2.889835400556283 2.8773705786914894 2.8952234537188914 2.903709039271705 2.8946237883891475 3.660185439177491 6.0 6.0 6.0 6.0 6.0 6.0 6.0 6.0 6.0 6.0 6.0 6.0 6.0 6.0 5.128841489311441 3.1532001895387447 3.0344168164159266 2.9018310814434165 2.7220621665552054 2.4494651293140204 1.9037307194133974 1.1065939332572559 1.3207715432051497 2.1473378073209695 2.5560236883134064 2.7893429555705023 2.9514625640350496 3.075091837183637 3.878567942237158 6.0 6.0 6.0 6.0 6.0 6.0 6.0 6.0 6.0 6.0 6.0 6.0 6.0 6.0 6.0 6.0 6.245702759528984 7.4866305232931865 8.534263902200811 8.534263902200813 7.486630523293186 6.245702759528985 6.0 6.0 6.0 6.0 
2.889699890008895 2.900241151316131 2.8759124363598163 2.8810431688543785 2.8946125243348986 2.9049236947870085 2.932166484019954 2.921824298399059 2.89092051333681 3.6684978858420156 6.0 6.0 6.0 6.0 6.0 6.0 6.0 6.0 6.0 6.0 6.0 6.0 6.0 6.0 4.239006875443738 3.1003905601674466 2.9705443971883048 2.822189608154145 2.613620743242563 2.272693151718932 1.5216170533465543 0.999652244171083 1.6473862072494176 2.331849985316675 2.646597935447491 2.844654379050678 2.987380882260589 3.0979595378281335 4.444157830748688 6.0 6.0 6.0 6.0 6.0 6.0 6.0 6.0 6.0 6.0 6.0 6.0 6.0 6.0 6.0 6.0 6.0818447268046185 7.234060979940438 8.066249018170144 8.066249018170144 7.234060979940438 6.0818447268046185 6.0 6.0 6.0 6.0 
2.9112437828391258 2.9003773854208483 2.8887116302685643 2.8814839752840395 2.8871011886252527 2.911552074661473 2.911029538720868 2.8726684707173633 2.9070089318860015 3.6819591986988964 6.0 6.0 6.0 6.0 6.0 6.0 6.0 6.0 6.0 6.0 6.0 6.0 6.0 5.647758803283346 3.5044259039462626 3.044299175135429 2.9013144639621844 2.733302425809167 2.485803394169685 2.03190424211205 1.194848911950992 1.1547692502867095 1.9839104021667022 2.464550142259366 2.719909067063536 2.8916766159983367 3.01967957772747 3.1208986286456692 5.011510166038802 6.0 6.0 6.0 6.0 6.0 6.0 6.0 6.0 6.0 6.0 6.0 6.0 6.0 6.0 6.0 6.0 6.0 6.425076230187637 6.914409689805617 6.914409689805617 6.425076230187637 6.0 6.0 6.0 6.0 6.0 
2.8952008492345467 2.895421961664098 2.880735332606106 2.8806160127448504 2.8795051427624463 2.9080295131954332 2.906688693973935 2.880974191328408 2.8940133495255087 3.6665415421388095 6.0 6.0 6.0 6.171112912264791 6.17111291226479 6.0 6.0 6.0 6.0 6.0 6.0 6.0 6.0 4.756887707548502 3.1058986286456696 2.9843576937487586 2.8255292408477395 2.632363168862512 2.3292875651407225 1.6785366638945713 0.9789739814150302 1.434498351945798 2.210667784058398 2.566351740694143 2.780579896913549 2.931906213613665 3.0477742970460797 3.4925509039462623 5.717707042626676 6.0 6.0 6.0 6.0 6.0 6.0 6.0 6.0 6.0 6.0 6.0 6.0 6.0 6.0 6.0 6.0 6.0 6.0 6.0 6.0 6.0 6.0 6.0 6.0 6.0 6.0 
2.909758409610441 2.907699059878587 2.894369491549609 2.9140809579764673 2.895326409759879 2.913116939686392 2.904818930283655 2.896833985987052 2.8945031412989874 3.689821244471158 6.0 6.0 6.4437996039792695 6.986425069585033 6.986425069585033 6.554749504974088 6.057227526554133 6.0 6.0 6.0 6.0 6.0 6.0 4.02332228843586 3.052959537828133 2.9198406326023747 2.7415516029225 2.5150904151734035 2.1257449951347964 1.3153339494555731 1.0122570047240507 1.783878227797661 2.365495271523228 2.6475729299911186 2.831609268094089 2.9666022458845878 3.072306067135177 4.212131875443738 6.0 6.0 6.0 6.0 6.0 6.0 6.0 6.0 6.0 6.0 6.0 6.0 6.0 6.0 6.0 6.0 6.0 6.0 6.0 6.0 6.0 6.0 6.0 6.226664253256822 7.283245916015937 7.283245916015938 6.226664253256823 
2.933579846929271 3.073866357970108 3.1217586004026576 3.0106101337979654 2.907430802510363 2.907726396154003 2.8970205261838298 2.906117938423977 2.9061067615889016 3.6709668900732852 6.0 6.113800916806913 6.983341251882173 7.569709205096546 7.5697092050965455 7.115375648045806 6.353849127112002 6.0 6.0 6.0 6.0 6.0 5.4633241567108275 3.276959927796448 3.0000918371836374 2.850984872611628 2.6471406225471683 2.374465129314021 1.8287307194133973 1.0315939332572557 1.2457715432051497 2.0723378073209693 2.481023688313406 2.7132798199349777 2.867189406749457 2.9780296090669607 3.0624294585682748 3.657404229316763 5.570088350912625 6.0 6.0 6.0 6.0 6.0 6.0 6.0 6.0 6.0 6.0 6.0 6.0 6.0 6.0 6.0 6.0 6.0 6.0 6.0 6.0 6.0 6.0 6.825302322615006 8.672550230985308 8.67255023098531 6.825302322615006 
3.2181776618204334 3.4320870213136425 3.459841045624012 3.391936869542885 3.114128173130228 2.881560410702756 2.889591360417244 2.8999221376037774 2.889159918121009 3.6911357411670296 6.0 6.228340438818924 7.135133045248878 7.925255542989415 7.925255542989414 7.190575867742171 6.476195600338775 6.0 6.0 6.0 6.0 6.0 5.278860290181365 3.068606273145271 2.9614401493919673 2.795215395479778 2.5575222955706574 2.2140143785154307 1.4545216300181716 0.9159400996795694 1.5240973343669233 2.1891931658356296 2.485557970490881 2.6663760302132404 2.7926615166303206 2.8911038081349276 2.973210206419152 3.0433731856014434 3.8223566149187596 5.461153911038442 6.0 6.0 6.0 6.0 6.0 6.0 6.0 6.0 6.0 6.0 6.0 6.0 6.0 6.0 6.0 6.0 6.0 6.0 6.0 6.0 6.0 6.46156859618856 7.977251965747738 7.977251965747738 6.46156859618856 
3.399374355133199 3.5959059093262296 3.765211071987079 3.5380291048171055 3.348313488406177 2.971181304882993 2.894891255445376 2.904905403248261 2.9014011634109154 3.688451777921708 6.0 6.0565733902527805 6.844321129981212 7.338800596884567 7.338800596884567 6.998828022223734 6.234444960702718 6.0 6.0 6.0 6.0 6.0 5.2746837678655325 3.0515380451143583 2.943315382972837 2.7743732646959014 2.5295171777933763 2.167695319929879 1.4084599941529472 0.9132925990358995 1.170098567911677 1.783378933928261 2.214095070668929 2.458440345182258 2.627384777765531 2.7554493659785795 2.8579011242134413 2.942857226320489 3.025815435748431 3.6314788291915963 5.456299375638524 6.0 6.0 6.0 6.0 6.0 6.0 6.0 6.0 6.0 6.0 6.0 6.0 6.0 6.0 6.0 6.0 6.0 6.0 6.0 6.0 6.0 6.21629193202838 6.21629193202838 6.0 
3.4266242282325217 3.763301762046699 3.9691939361827435 3.6123790329718033 3.391944719638315 2.9845257150467273 2.8845430776680376 2.9054009904909575 2.9075115645576997 3.670237406347718 6.0 6.0 6.2401548905218585 6.685278762425526 6.6852787624255265 6.300193613152324 6.0 6.0 6.0 6.0 6.0 6.0 5.273220102106234 3.0475894792964704 2.9448740356803618 2.789696086010934 2.579825160911625 2.32328610545822 1.9499627269261828 1.350394190004021 0.9195470272878642 1.0642165590428183 1.6507529193197086 2.1344944494919655 2.402348935951828 2.582562568351653 2.7172331045057043 2.8240083645016725 2.92472414529273 3.009004212556752 3.42937045870565 4.908457767243339 6.0 6.0 6.0 6.0 6.0 6.0 6.0 6.0 6.0 6.0 6.0 6.0 6.0 6.0 6.0 6.0 6.233885334846326 6.319849937781699 6.313999025060479 6.076347743513749 6.0 6.0 6.0 
3.3601513815257804 3.5239259181650398 3.603976834538023 3.487828482686686 3.2557417085689475 2.9214491182590323 2.904533285835087 2.905063704706649 2.9234595730082016 3.3385555072753488 4.573677914984754 4.569468994191732 4.595204631888267 4.595193556744913 4.569094344715956 4.547096017919671 4.581223471078097 4.576462807409791 4.590988787785157 4.585197710119183 4.571740891505887 4.570911925556061 4.39178594671104 3.236796210701727 2.9665109203174267 2.8372471461088553 2.6819999896946882 2.526060754913746 2.3273768379355704 2.0202146079579233 1.4696432998430673 0.9480530020098216 0.9683408941984895 1.5091243686601123 2.0466905199644945 2.342982344849616 2.5359814194579826 2.6779251166355658 2.8050118643445825 2.907629585180157 2.980649850083246 3.2243441761582052 4.71666194283644 5.817992327064661 6.0 6.0 6.0 6.0 6.0 6.0 6.0 6.0 6.0 6.0 6.0 6.0 6.0 6.486845983254226 7.28759940026626 7.446505246132135 7.402846335929338 6.822048459767783 6.078117591429462 6.0 6.0 
3.0938560324660926 3.316855207315 3.3777543305599345 3.2569158040938726 3.0333273524617104 2.9094618513623414 2.903896659590083 2.899640345256496 2.9080935599727193 3.189161334495233 4.112987619670052 4.123291261612524 4.089773955086975 4.11476374882892 4.094294103556037 4.065635537031034 4.08925897202394 4.097490466727317 4.112695637549182 4.112690872759092 4.103680328145862 4.1005232671558085 4.0951616268492845 3.5624335690277498 3.0011714944818126 2.8994017498834848 2.788345836255222 2.679256390808846 2.5422403807317235 2.3579479342171408 2.0812371286236324 1.5751629292565053 1.00807756274838 0.9050142172332807 1.3650537018078541 1.9482758456496199 2.2798052111678375 2.4874366756050628 2.657508886025253 2.7875489403395544 2.8766010710124137 2.951908912720097 3.016986178737695 4.158667780239947 5.8168402932449865 6.0 6.0 6.290973223217295 6.400922458939913 6.391453894901239 6.094423617856337 6.0 6.0 6.0 6.0 6.0 6.233885334846326 7.28759940026626 7.726910344263595 8.096593205592319 7.882467654363952 7.462896102255262 6.561113471112221 6.0 6.0 
2.8785925463499034 2.9524435903250037 2.9828146444148453 2.9457593436685072 2.91610070724136 2.905391522376861 2.887034677361617 2.9021139232995443 2.8666009078081114 3.1900073399578575 4.113584135178549 4.102946186691164 4.070345722805061 4.094883747495231 4.082018969798935 4.1001682796889085 4.104651586522442 4.114496765025157 4.106839211778494 4.099689967640872 4.087910636108122 4.110035370533663 4.112116874478636 4.051996343756355 3.3986883729354544 2.9725976233710805 2.889925472330981 2.8066253125942673 2.7064460395943724 2.5816743758354206 2.417885552094381 2.1826217056076214 1.7768385801708078 1.2043153520032166 0.8850555721032768 1.1429490151337625 1.7036172892765926 2.14211744722825 2.42151415329044 2.609141422746587 2.728138953559499 2.8246170556679533 2.908253359153165 2.9863281182515444 4.51410693746993 6.0 6.728963727704574 7.712772709046007 7.993078116513696 7.879873418377196 7.162064075807317 6.12265029803989 6.0 6.0 6.0 6.0 6.319415950147851 7.443045826904675 8.071553736678238 9.09158104782791 8.468830593006542 7.5845473662178735 6.662041824680438 6.0 6.0 
2.8897576481594953 2.8964327121945583 2.887223753779577 2.8855299957680036 2.9153842623113504 2.907976663831434 2.8868588833736917 2.9010118927454647 2.9011172275881014 3.1988609952737015 4.117361690625477 4.102648882090126 4.113390526806865 4.115705561935813 4.092272821786515 4.104752043720483 4.099848267032449 4.099957397780143 4.106360152266601 4.112082230728984 4.0952345866761695 4.09234934850071 4.119343150284443 4.115513299984754 4.019520592220919 3.450093750428094 2.9696300751868785 2.902760267640367 2.8250289049931583 2.732657405994953 2.619563052478967 2.4750291202154004 2.2773768379355706 1.9702146079579237 1.4196432998430673 0.8980530020098219 0.9183408941984895 1.4591243686601119 2.0494169612703077 2.365078754615081 2.5377997920568207 2.6735961943672226 2.7940464522952007 2.90003750943581 3.175200616128763 5.256912386903733 7.300436875894401 8.350679669836477 9.380383213658975 8.756111346650208 7.829192617065633 6.318127408069567 6.0 6.0 6.0 6.0 6.233885334846325 7.28759940026626 7.726910344263594 8.096593205592319 7.882467654363951 7.462896102255262 6.561113471112221 6.0 6.0 
2.8785505338297894 2.901003957523272 2.8911086717454295 2.8994497715197114 2.9081846314520896 2.892186350282011 2.9099477934013565 2.884257813870877 2.885824723643086 3.4540332034425747 5.061922113505207 5.041692931609728 5.056961658884207 5.040521759772878 5.054204993667282 5.059881513670161 5.058568891406284 5.046406596447703 5.051362875663525 5.0514113201375554 5.066553875306088 5.059927163227549 5.051928775562374 5.056414283022821 5.064104148172634 5.09745507735015 4.129415573483941 2.9669366019079946 2.9019089127200965 2.826601071012413 2.737548940339554 2.629256390808845 2.4922403807317233 2.307947934217141 2.031237128623632 1.525162929256505 0.95807756274838 0.8550142172332807 1.4210920272843601 2.0314298490199696 2.3195599953884662 2.535909246356354 2.70499144503751 2.8372745837131195 2.9435379012012697 4.502280990965406 7.300436875894401 8.350679669836476 9.380383213658975 8.75611134665021 7.829192617065633 6.318127408069566 6.0 6.0 6.0 6.0 6.0 6.486845983254227 7.287599400266259 7.4465052461321335 7.402846335929336 6.8220484597677835 6.078117591429462 6.0 6.0 
2.8769554836337363 2.889259387501268 2.888792311980614 2.900298425734726 2.9076261576502715 2.887995311950389 2.8969567113567085 2.8986034171819246 2.906136459531496 3.678600641342499 6.0 6.0 6.0 6.0 6.0 6.0 6.0 6.0 6.0 6.0 6.0 6.0 6.0 6.0 6.0 6.0 5.250928835482908 3.359933786212977 2.934495263603096 2.8731948915979637 2.8028261898323965 2.720307572788328 2.618458407050621 2.4895269820713604 2.3192043643467284 2.0717841512426087 1.6335317249086572 1.0249661775702354 0.8539322086444407 1.454000134989159 2.096508983317349 2.4326825256410265 2.6440070854703173 2.7947548556765733 2.910469948899099 4.4877619704620555 6.911204659630719 7.849992663090213 8.090425186702207 7.958387878070257 7.358156476902809 6.153312872549863 6.0 6.0 6.0 6.0 6.0 6.0 6.233885334846325 6.319849937781699 6.313999025060479 6.076347743513749 6.0 6.0 6.0 
2.8819872798770185 2.8907763671127347 2.8938566024603585 2.8878854894624144 2.9148333875068353 2.8783876887248674 2.9000876348546307 2.9124667209299138 2.9117197845732106 3.6696631445041157 6.0 6.717500331100256 8.05204811678025 7.75133582032087 6.2750840596720545 6.0 6.0 6.0 6.0 6.0 6.0 6.0 6.0 6.0 6.0 4.940176045560031 3.332380177264928 2.9093178313802834 2.8527433895095413 2.7886012436808687 2.71478405909764 2.628195731991348 2.524026225021138 2.394209457019394 2.223608266979801 1.977906060186893 1.5627653628644456 1.0262194506298234 0.787117978490337 1.2902682832569896 2.042695319929879 2.4045171777933767 2.6226726454842764 2.776100108014461 2.8931165449839393 4.479355786494555 6.096240288787419 6.699522219867205 6.836109065970523 6.812932977789227 6.2911445783277005 6.0 6.0 6.0 6.0 6.0 6.0 6.0 6.0 6.0 6.0 6.362600476343103 6.735635283645798 6.735635283645797 6.362600476343103 
2.8916130770950152 2.9299328458587537 2.9043562411328327 2.892527755988614 2.8995065484378895 2.885418312668663 2.899545178749778 2.898646225053963 2.9080185084149215 3.666612078649604 6.0 7.2670463637701435 9.754982425236147 9.172293395169879 6.583734791237239 6.0 6.0 6.0 6.0 6.0 6.0 6.0 6.0 5.620775727974937 4.285669181782926 3.0733648849828437 2.8611866082880955 2.800284066858844 2.7306417774984872 2.649620725929925 2.5532193195959816 2.434949879141012 2.2832424655253436 2.074120126891195 1.7409118309225036 1.234661534597038 0.8389115963451664 0.8220859171166409 1.290613678646514 1.8575794852477165 2.1988727241119648 2.4548251609116254 2.64047009992404 2.780389489820495 2.890663029672205 4.476708930621039 6.0 6.0 6.0 6.0 6.0 6.0 6.0 6.0 6.0 6.0 6.0 6.0 6.0 6.0 6.739031107907623 7.479768593872593 7.674401238229644 7.674401238229644 7.479768593872594 
2.888905553281762 2.9050820903702315 2.907424252070508 2.9215177825098304 2.902139213848824 2.9121517333503473 2.9113327099978874 2.8954144604388996 2.904440885203352 3.6685472787690303 6.0 7.037797348636313 9.030335813032545 8.56814684028505 6.422170977515512 6.0 6.0 6.0 6.0 6.0 6.0 6.0 5.043789404255898 3.5008536240087857 2.8863750498278318 2.8204216925360197 2.7446934378010233 2.668610950045079 2.578965331717631 2.47045963208161 2.334042030800632 2.1522169426732063 1.883037906279382 1.4291681084110177 0.948860393650622 0.755903203014234 1.0045621799083357 1.4985808373483278 1.9717851222905007 2.244453173967119 2.407661906030215 2.5570517822563827 2.692554594915643 2.807470226992019 2.9040286759309497 4.85814236625659 6.0 6.0 6.0 6.0 6.0 6.0 6.0 6.0 6.0 6.0 6.0 6.0 6.0 6.362600476343103 7.479768593872595 7.876949415828914 8.20675690863965 8.206756908639646 7.876949415828915 
3.3140813270362526 3.383194054321779 3.249137417861492 2.963562103451106 2.9198443057464156 2.886692901565311 2.879730371418323 2.8889063843962886 2.8882583149913517 3.669478964857544 6.0 6.133354789660301 6.573671664718033 6.422170977515511 6.0 6.0 6.0 6.0 6.0 6.0 5.8090277932449865 4.2703698735437134 3.0840706745885242 2.838794355062305 2.7788628485168787 2.69766897880511 2.601732531712953 2.5015870900879387 2.3777958432807402 2.217167436355377 1.9911978295237218 1.6148718432293787 1.101379805410239 0.7634094916143207 0.8421063047732393 1.2728341652955502 1.7682625660070674 2.0768689994444967 2.3014007719779226 2.4634320571060915 2.570614633813458 2.665282985745075 2.759327764815008 2.848365145974322 3.6871939708368884 5.80970128549105 6.0 6.0 6.0 6.0970383588397326 6.697675277819695 7.139220621384747 7.0136140457091605 6.493002537110964 6.0 6.0 6.0 6.0 6.0 6.735635283645797 7.674401238229643 8.206756908639646 9.364679558348662 9.364679558348664 8.206756908639647 
3.999478675148428 4.05568760369516 3.9506031076692922 3.4952864445169722 2.9744040792861663 2.9018793338949482 2.8815450995630716 2.873263237210912 2.8889786031075055 3.680272405656404 6.0 6.0 6.0 6.0 6.0 6.0 6.140409179035052 6.140409179035051 6.0 6.0 4.6493672809556905 2.874021313781704 2.799842829995253 2.725459611900895 2.6494506841166756 2.5449088205699715 2.4158003670890116 2.272120635007157 2.0775657725721697 1.7798903878043884 1.2921761484308738 0.8460730668553021 0.7369018548861814 1.056475016280239 1.5698690087695952 1.9574156861127279 2.1896061774526685 2.3534330942027624 2.4965882916038664 2.6104464898833 2.690603745723621 2.7601728703331934 2.826995495567194 3.0854263008402096 5.231035249473142 6.0 6.0 6.0 6.095424970991992 7.012384287842725 7.769075560300071 7.93373148674211 7.89011715230932 7.605128280412361 6.596804647527513 6.0 6.0 6.0 6.0 6.735635283645797 7.674401238229644 8.20675690863965 9.364679558348662 9.364679558348664 8.206756908639647 
4.375548750554666 4.532674963615718 4.243933523718032 3.9587301527316177 3.298820071563101 2.894568419004719 2.8858742464333185 2.8902161180286114 2.904757212215145 3.670882916112747 6.0 6.0 6.0 6.0 6.2165532477151935 7.1692840789951795 7.794384174003918 7.803906481482338 7.4404728729314655 6.002025435977812 3.2669650618951858 2.7987755678342943 2.701473252443301 2.5951831086223804 2.4867970782969104 2.3416287725423635 2.148608266979801 1.9029060601868928 1.4894702675500882 0.9854819452779532 0.7132530095679724 0.8777613666639309 1.3478953214327583 1.8146790475448338 2.0927193059674556 2.278605789013744 2.4173658941450684 2.5273926166306344 2.631221469467678 2.7181508791328803 2.7817312337987876 2.8378625645507545 3.4649006722432056 5.034736158039446 6.0 6.0 6.0 6.0 6.488608806373841 7.720523292808628 8.133967071878992 8.742931448470241 8.536332248979848 7.9710248685843235 7.344686878015548 6.095424970991992 6.0 6.0 6.0 6.362600476343103 7.479768593872593 7.876949415828914 8.206756908639647 8.206756908639646 7.876949415828914 
4.900684760766532 5.42424804930482 4.52816875712726 4.02939448451412 3.4168304140066654 2.8960416208230035 2.8670249698906476 2.892807864076495 2.8873970169593637 3.6621985165831723 6.0 6.0 6.0 6.1411921022436005 7.507426023588026 8.769561234542513 9.150388817783574 9.187380008300146 8.945736481698562 6.992730510568188 3.2335591565437296 2.731425455935468 2.607624140025584 2.4556019840241134 2.276899707311324 2.035915589853225 1.6659118309225038 1.159661534597038 0.7639115963451666 0.7470859171166409 1.124433584348034 1.6348630886203954 1.9820157520770714 2.1964746552451473 2.3510493647660393 2.47110735970551 2.568727461504056 2.650629714903161 2.7313801563810443 2.801198386101555 3.0468729890271864 4.24578839806066 5.612900603953082 6.0 6.0 6.0 6.0 6.0 6.78840501407384 7.800470136093189 8.411306057396768 10.017943520399376 9.3944488278469 8.142606406744058 7.681817208353254 6.383334949322678 6.0 6.0 6.0 6.0 6.739031107907623 7.479768593872594 7.6744012382296445 7.674401238229643 7.479768593872593 
4.59128083445517 4.9011062271608745 4.391325976592388 4.02038557665337 3.315902754382902 2.8800423924016085 2.8794000943333584 2.8775541989751954 2.8798555648158257 3.688388334346171 6.0 6.0 6.0 6.533299689884089 8.571014735358352 9.427657521815398 11.008134804777287 11.413653181173409 9.995296082517944 7.332052783867358 4.049887743094738 2.6811177950586846 2.534889557144262 2.334614012908242 2.0355484919740237 1.4605203624243916 0.8738603936506221 0.680903203014234 0.9295621799083358 1.4235808373483279 1.8520855708445612 2.105145105248734 2.2793373125453305 2.411286517089945 2.516865017926752 2.6044506841166752 2.679008957426211 2.7437221285604623 2.8093744747996716 3.6417015796835774 5.025667975882219 6.0 6.0 6.0 6.0 6.0 6.0 6.0 6.590549218240339 7.759959632574436 8.259000983705581 9.242549968484223 8.881010574310428 8.051804531921402 7.465156226683362 6.191372838108909 6.0 6.0 6.0 6.0 6.0 6.362600476343103 6.735635283645797 6.735635283645796 6.362600476343103 
4.097826403378723 4.562339908081649 5.26694065942795 5.12043599389358 4.085980103233304 3.092340220543878 2.8862088674915927 2.8928072914353584 2.8801851561931304 3.6647732961226764 6.0 6.0 6.0 6.85551307871724 8.843540254473181 9.934178441251584 13.079871921067708 14.087423224664736 11.126125005987118 7.4967840282598806 4.3869500583745475 2.654866889314386 2.5005178896877003 2.279949056273761 1.9074565325334238 0.9889072061505246 0.7399035242776679 1.1978341652955504 1.6932625660070675 2.001868999444497 2.2010563374656473 2.3473211359971886 2.4621591198128074 2.5562061713122066 2.635516536810458 2.703862848516879 2.763751796748183 2.8169312300885356 4.111546096313125 5.804673058013491 6.0 6.0 6.0 6.0 6.0 6.0 6.0 6.0 6.193032494169245 7.340642311071564 7.879413268620247 8.11861787169723 8.051804531921402 7.786941344382178 6.906196545750374 6.0 6.0 6.0 6.0 6.0 6.0 6.0 6.0 6.0 6.0 
3.4592436414455228 4.744460640636954 5.843330473867407 5.983690444539166 5.014053265478558 3.649299369488161 2.897310623074806 2.9023634853408344 2.8951422706665024 3.6613025369312995 6.0 6.0 6.0 6.57692541430356 8.700222020303219 9.503795038523412 11.395595362534912 12.241691059698232 10.393514915351943 7.337615110283676 4.094757854355114 2.6502752002376533 2.5020016714487867 2.2929983935182245 1.9497915968377382 1.0619325705661395 0.8675552340371258 1.7006863823683744 2.1013784644786098 2.3020053676963603 2.4284472540110618 2.5255109358300927 2.606945311788838 2.676862243060589 2.7379561683774307 2.9492156853003157 3.9341828992070296 5.055085939855935 5.8748646340357435 6.0 6.0 6.0 6.0 6.0 6.0 6.0 6.0 6.0 6.0 6.2368507182068464 6.90032171704559 7.279123412535757 7.172124981346689 6.724957236600301 6.078086018541802 6.0 6.0 6.0 6.0 6.0 6.0 6.0 6.0 6.0 6.0 
2.9126697118081073 4.235881707975325 5.442029571353626 6.016946111494657 5.0695003564200345 3.7313459385187486 2.8831374487468744 2.886913588843284 2.8917558216718646 3.6663499232247516 6.0 6.0 6.0 6.08492727140049 7.5224287193285075 8.78652509063464 9.180271323756754 9.263184868617328 8.954616526762319 6.601360569178247 3.4703012871752272 2.6557108286374427 2.5154613799464505 2.321294324770774 2.0145557224464348 1.1773893420483046 0.7286489871854498 1.5809113400310078 2.109635303301372 2.37660489182561 2.5402142812678132 2.6439362820308103 2.7134992935000657 2.7683278336965254 3.604201579683578 5.01004297588222 6.0 6.0 6.0 6.0 6.0 6.0 6.0 6.0 6.0 6.0 6.0 6.0 6.0 6.0 6.0 6.0 6.0 6.0 6.0 6.0 6.0 6.0 6.0 6.0 6.0 6.0 6.0 6.0 6.0 
2.894290494558331 3.6353146322302905 4.599076237699312 4.83331752498575 4.426810102823165 3.286936355779178 2.8996792670549896 2.8977652304586043 2.8821685834828736 3.6677897278986897 6.0 6.0 6.0 6.0 6.260681258267852 7.297015875880523 7.944251548720474 7.970945358687167 7.612926515112911 6.004115823560871 2.8505769375931416 2.659860926720486 2.5257198107035777 2.342605444900949 2.0614372264466625 1.2988495691198287 0.6393633704590018 1.4080369729141111 2.036468303396294 2.3277753437154796 2.515348298306655 2.6519120518339734 2.7522184539543995 3.8052513018157126 5.801548058013491 6.0 6.0 6.0 6.0 6.0 6.0 6.0 6.0 6.0 6.0 6.0 6.0 6.0 6.0 6.0 6.0 6.0 6.0 6.0 6.0 6.0 6.0 6.0 6.0 6.0 6.0 6.0 6.0 6.0 6.0 
2.8972434741298816 2.9013763296349113 3.2090589533739933 3.314420313975833 3.0946069923793473 2.9030079569946383 2.903993322207453 2.899531255510041 2.9049210524922526 3.6621992154434477 6.0 6.387638247646507 6.6663201289800735 6.64746184094426 6.227714579833279 6.08492727140049 6.345892444303222 6.3500330756316 6.258279960530039 5.202280281353422 2.7646181877290994 2.6632813768770482 2.534772831142462 2.361589909713659 2.102201093476232 1.4102158794606 0.5828905056483096 1.2306403934343653 1.9566447683689359 2.275405089714734 2.47455407445837 2.6175033711720643 2.8632299319417887 4.875711626766475 6.605075436565971 6.541355639521055 6.230864431135327 6.0 6.0 6.0 6.0 6.0 6.0 6.0 6.0 6.0 6.0 6.0 6.0 6.0 6.0 6.0 6.0 6.0 6.0 6.0 6.0 6.0 6.0 6.0 6.0 6.0 6.0 6.0 6.0 
2.878688027748544 2.8883211706447525 2.8898737406773987 2.895958554293906 2.8815968298168135 2.8922767179100393 2.8902382457279647 2.88289996205793 3.098691582077867 4.596866806143554 7.385954591209463 8.311312472605485 8.023115311595529 7.617096940970585 6.904794287707972 6.0 6.0 6.0 6.0 5.800513027641565 3.3627031786471058 2.6660218369525617 2.5427226821199382 2.3785107347913224 2.137901091493289 1.5445172295308036 0.6367810959575239 1.0766825385552439 1.8685360933161348 2.220241886015269 2.43238405863081 2.5822237314285768 3.177459664364928 5.107503226114346 7.125985063730279 7.0109879475500625 6.700286857152831 6.09037113117884 6.0 6.0 6.0 6.0 6.0 6.0 6.054145871779287 6.34043529722439 6.470404389366892 6.40424146857121 6.110677430795211 6.0 6.0 6.0 6.0 6.0 6.0 6.0 6.0 6.0 6.0 6.0 6.0 6.0 6.0 6.0 6.0 
2.9007367044721533 2.877612850403384 2.897964704372105 2.900252975349797 2.897614007315863 2.9270745188110427 2.906049362323492 2.902516321266878 3.539054483995642 5.447476610308144 8.656105903436393 9.520088566060371 9.378957648605795 8.164208895739202 7.0712133115673454 6.0 6.0 6.0 6.0 6.0 3.561700110330969 2.668127173379141 2.5496593708497866 2.3935893097297 2.1693405411167705 1.6570403911653409 0.6981211136471511 0.9183081665599137 1.769820715124066 2.1618681030933145 2.3886958022394764 2.5460701179457272 3.2703940522732964 4.685914796082362 7.710508463687896 7.353035216466198 6.854047908917709 6.184339297262203 6.0 6.0 6.0 6.0 6.0 6.0 6.459530224990859 7.04082673473231 7.176096783888346 7.1018111050593955 6.710990357690475 6.054695646541964 6.0 6.0 6.0 6.0 6.0 6.0 6.0 6.0 6.0 6.0 6.0 6.0 6.0 6.0 6.0 
2.8979952186586053 2.8822496419948695 2.8960074650011 2.906109278179583 2.927538458211157 2.9243418690168723 2.885262914902704 2.9183292178960514 3.628973613606143 5.62133363384607 9.263212087945265 9.776330007017602 8.992378347957349 7.836854532167531 7.020284055256545 6.0 6.0 6.0 6.0 6.0 4.165436841241853 2.6696380528530415 2.555662535068416 2.4070137226586055 2.197146346039617 1.7453376543126158 0.8011980880319729 0.7909765971894103 1.6570067887960944 2.0997661572702584 2.343324059126557 2.508970358806206 3.174465995693175 4.346416521669086 7.1505997102822025 7.148377531596518 6.774439232532133 6.136570928654962 6.0 6.0 6.0 6.0 6.0 6.0 6.73164045148251 7.322518891005036 7.901841716787938 7.550619324457676 7.029124394275519 6.223727584152149 6.0 6.0 6.0 6.0 6.0 6.0 6.0 6.0 6.0 6.0 6.0 6.0 6.0 6.0 6.0 
2.9070287931297654 2.888458798676867 3.155311921539573 3.5270864563051143 3.50451239406678 3.1637471347765964 2.8941056156449494 2.8837473294017775 3.4196121815237333 5.302503664429331 8.017941313740467 8.461842879854725 7.775189101632222 7.020284055256546 6.465443511778594 6.0 6.0 6.0 6.0 6.0 4.366322764971838 2.670591445770922 2.5608029658153186 2.41894509977101 2.22181735651641 1.8173774001120346 0.8979545233850383 0.6598310020627132 1.524430965298149 2.033283637617399 2.2960756769399064 2.470843201990881 2.83112423282768 3.4024679213341336 6.040776135751019 6.774439232532133 6.379489463371434 6.0 6.0 6.0 6.0 6.0 6.0 6.0 6.73164045148251 7.3225188910050365 7.901841716787938 7.550619324457676 7.029124394275518 6.22372758415215 6.0 6.0 6.0 6.0 6.0 6.0 6.0 6.0 6.0 6.0 6.0 6.0 6.0 6.0 6.0 
2.9128583268863397 3.487972748237618 4.521193401189022 4.88139056756212 4.745096820382044 4.389258810133746 3.419417109138972 2.9092816929668444 2.9967984062907878 4.202649495976923 6.726412353351475 6.619106576494676 6.1328243446658 6.0 6.0 6.0 6.0 6.0 6.0 6.0 4.975950772184683 2.6710210567363624 2.565143861213644 2.4295225035797254 2.2437571219625005 1.8776316170139307 1.0295526375789805 0.5702846671138512 1.361789924664316 1.9615815252447495 2.2467229701194698 2.431596741278086 2.5667213309958634 2.762655330961079 5.159705931574096 6.136570928654962 6.0 6.0 6.0 6.0 6.0 6.0 6.0 6.0 6.459530224990859 7.040826734732309 7.176096783888346 7.101811105059395 6.710990357690476 6.054695646541964 6.0 6.0 6.0 6.0 6.0 6.0 6.0 6.0 6.0 6.0 6.0 6.0 6.0 6.0 6.0 
3.0279162994673534 4.544835321752396 5.419014280065736 5.972656362994054 5.947404171848597 5.273991067667958 4.218198832344243 2.9772766631591767 2.896993110612079 3.6829623866194936 6.0 6.0 6.0 6.0 6.0 6.0 6.0576758645892905 6.418619701027512 6.491176372094798 6.295302520727035 5.178951200769936 2.6709576944362703 2.5687418663206043 2.4388667669052886 2.2632967483711175 1.9289024735482616 1.1525402240164782 0.4908143571256189 1.1771417050681348 1.883554399415301 2.1949949953914945 2.3911264865872717 2.532444422923965 2.641896809121279 4.351893087537764 6.0 6.0 6.0 6.0 6.0 6.0 6.0 6.0 6.0 6.054145871779286 6.34043529722439 6.470404389366892 6.404241468571211 6.11067743079521 6.0 6.0 6.0 6.0 6.0 6.0 6.0 6.0 6.0 6.0 6.0 6.0 6.0 6.0 6.0 6.0 
3.433398952154433 5.16581063319145 5.857740861888777 7.298338438111337 7.208795212748181 5.71933511144535 4.7615583109985185 3.2513684159650627 2.9198858151279232 3.691078161922778 6.0 6.0 6.0 6.0 6.0 6.0 6.551846995064966 7.180248963473714 7.314499057654432 7.028130839324086 6.089986254487254 3.2866311860106543 2.571647941386793 2.4470835290337685 2.280711262436298 1.9730781858458488 1.303001844780274 0.5265919879260672 1.024267731519449 1.797701754932257 2.1405658732402117 2.3493129777298756 2.4973729372077815 2.610988309793487 4.131404999472258 6.0 6.0 6.0 6.0 6.0 6.0 6.0 6.0 6.0 6.0 6.0 6.0 6.0 6.0 6.0 6.0 6.0 6.0 6.0 6.0 6.0 6.0 6.0 6.0 6.0 6.0 6.0 6.0 6.0 6.0 
3.4132666207512483 5.00147159231416 5.9285883351324955 7.2970024359227335 6.950787664045057 5.663514116654034 4.721246765810206 3.0550685728972233 2.899201024400661 3.697618625848753 6.0 6.0 6.0 6.0 6.0 6.0 6.781832163925664 7.579562264463678 7.99688418261849 7.314499057654433 6.491176372094798 3.491541149653725 2.5739080913933425 2.454265665591198 2.2962315871637493 2.0114987864663108 1.442301162635279 0.585936797334202 0.8605009931494888 1.70190827814325 2.0830388567395666 2.306018805251136 2.4614442589128354 2.579525251889803 3.495081926723989 6.0 6.0 6.0 6.0 6.0 6.0 6.0 6.0 6.0 6.0 6.0 6.0 6.0 6.0 6.0 6.0 6.0 6.0 6.0 6.0 6.0 6.0 6.0 6.0 6.0 6.0 6.0 6.0 6.0 6.0 
3.1423306825279145 4.457801527214996 5.501338868870549 6.056492394503371 5.838221844439581 5.31348609347315 4.156290626491119 2.8826046177686018 2.876675872595276 3.668723317789281 6.0 6.0 6.0 6.0 6.0 6.0 6.690726475119823 7.340640503804005 7.579562264463678 7.180248963473713 6.418619701027512 3.905535429924076 2.5755639826144625 2.460495251980869 2.3100534750590396 2.0451530649030962 1.5489835040563489 0.6795686953147729 0.7307663021564614 1.593039801265435 2.021924122349094 2.2610848518783837 2.424588274355813 2.54747095269568 3.473099616593408 6.0 6.0 6.0 6.0 6.0 6.0 6.0 6.0 6.0 6.0 6.0 6.0 6.0 6.0 6.0 6.0 6.0 6.0 6.0 6.0 6.0 6.0 6.0 6.0 6.0 6.0 6.0 6.0 6.0 6.0 
2.9607412948213487 3.4478781176550273 4.158149715475328 4.517504616106217 4.49409496538253 3.992800973116929 3.136351967760027 2.8881415856014323 2.898012726159706 3.674827958834361 6.0 6.0 6.0 6.0 6.0 6.0 6.141799420305713 6.552581180095859 6.625465731140531 6.441477596051972 6.046140691671432 4.319492508313756 2.5767605224457664 2.4666224653523736 2.324197530348543 2.0792472811201117 1.6467416522031448 0.7982229558991276 0.5792902576269509 1.4415218052969374 1.9450469954998906 2.2062533661923966 2.3802656232559603 2.5092444855428555 2.7771674128576405 5.330160960615949 6.0 6.0 6.0 6.0 6.0 6.0 6.0 6.0 6.0 6.0 6.0 6.0 6.0 6.0 6.0 6.0 6.0 6.0 6.0 6.0 6.0 6.0 6.0 6.0 6.0 6.066725768132363 6.274933208366227 6.2832446364612 6.279123486312626 
2.899829352077961 2.947550261262122 3.117225044072022 3.236378645594442 3.140772496863649 2.9970908282049322 2.9093844751707865 2.9067620585896137 2.9167731515225066 3.6941055319680016 6.0 6.0 6.0 6.0 6.0 6.0 6.0 6.0 6.0 6.0 6.0 4.946616634311894 2.577284199782239 2.4717213309958637 2.3365967412780857 2.1090647955692097 1.7263836469726486 0.9470747573315228 0.4685600947542086 1.252579169721905 1.8615884808778431 2.148757121962501 2.3345225035797257 2.470143861213644 2.5760210567363626 4.945325772184683 6.0 6.0 6.0 6.0 6.0 6.0 6.0 6.0 6.0 6.0 6.0 6.0 6.0 6.0 6.0 6.0 6.0 6.0 6.0 6.0 6.0 6.0 6.0 6.0 6.084817408962436 6.884885247399111 7.503841671483361 7.573720059609457 7.538311423423646 
2.8839414833433326 2.892576915678727 2.8986130297348898 2.897983897232896 2.9100298082262053 2.8895741378691433 2.902606487316402 2.889210788970787 2.9193676396052495 3.6722867163971853 6.0 6.0 6.0 6.0 6.0 6.0 6.0 6.0 6.0 6.0 6.0 5.15547822683331 2.5771810641813033 2.475259801692353 2.3458432019908804 2.131416491717945 1.7829732288177176 1.0691500968157641 0.39424425336824637 1.0691500968157641 1.7829732288177178 2.09681735651641 2.2939450997710096 2.435802965815319 2.5455914457709214 4.303822764971839 6.0 6.0 6.0 6.167808797845046 6.600895420205034 6.740190983924191 6.469412803178218 6.0546039891025565 6.0 6.0 6.0 6.0 6.0 6.0 6.0 6.0 6.0 6.0 6.0 6.0 6.0 6.0 6.0 6.0 6.6098104921533825 7.5462792969452295 7.865216601064581 8.107627689186327 7.97450382067929 
2.9023706784654806 2.901312996537668 2.9155212904953496 2.903001026391845 2.883298294990469 2.9121978318065396 2.891356145995868 2.866668522214556 2.885131412823922 3.6731305645010064 6.0 6.0 6.0 6.0 6.0 6.0 6.0 6.0 6.0 6.0 6.0 5.788814493816004 3.2104285741190233 2.4781103561721194 2.3539703588062064 2.1512943861437472 1.831588480877843 1.222579169721905 0.4385600947542087 0.9170747573315225 1.6963836469726483 2.0421463460396163 2.252013722658605 2.400662535068416 2.5146380528530408 4.077311841241853 6.0 6.0 6.0 6.600895420205035 7.269236620576868 7.495433164110728 7.117387697587967 6.343281330965576 6.0 6.0 6.0 6.0 6.0 6.0 6.0 6.0 6.0 6.0 6.0 6.0 6.0 6.0 6.0 6.0 6.726635077706995 7.6854623878602295 8.370023855467688 9.408201023643354 8.778791905891868 
2.8884308244368757 2.930680047377802 2.92972913311388 3.088423319390494 3.2606096658874373 3.2811271788827328 3.0770252621452454 2.8764045923732957 2.8796213159886537 3.644520728995676 6.0 6.0 6.0 6.0 6.0 6.0 6.0 6.0 6.0 6.0 6.0 6.0 3.421179732352084 2.4803186157073247 2.361070117945727 2.1689894873807916 1.873771034478762 1.3584715233852018 0.49799279707394783 0.7540066221315977 1.5996385630631176 1.9843405411167707 2.2085893097296996 2.364659370849786 2.483127173379141 3.4229501103309685 6.0 6.0 6.0 6.740190983924192 7.495433164110728 7.890528090445214 7.2444874945630495 6.465015816586091 6.0 6.0 6.0 6.0 6.0 6.0 6.0 6.0 6.0 6.0 6.0 6.0 6.0 6.121742460094285 6.924838026018858 7.528552194263133 7.944620500455694 8.212126217511653 8.900645286211276 10.072797276474029 9.443388158722545 
2.9097216310506435 2.909583338314185 3.1068826206660463 3.6832613829907914 3.860799360400773 3.8254330324112864 3.633790885603435 3.0835756053491865 2.9074580973054145 3.6735569593058015 6.0 6.0 6.0 6.0 6.0 6.0 6.0 6.0 6.0 6.0 6.0 6.0 4.0600580503618175 2.4819259098141573 2.367223731428577 2.1847446381036164 1.910653426082281 1.4630646744500606 0.5954400400822734 0.6261225028884544 1.4894904409559804 1.9229010914932887 2.1635107347913225 2.327722682119938 2.4510218369525614 3.187078178647105 5.786138027641565 6.0 6.0 6.469412803178217 7.117387697587966 7.2444874945630495 6.973371540179378 6.226532149705177 6.0 6.0 6.0 6.040811336404925 6.16502873161368 6.165028731613679 6.040811336404925 6.0 6.0 6.0 6.0 6.0 6.0 6.643621287556026 8.491274528092635 9.334146740881529 9.489925399545147 9.405773116593767 8.833448695381398 9.19463967590538 9.061515807398346 
2.893310551157248 2.885649721724402 3.283306814654882 3.882344949450795 4.369557101289123 4.349250783413276 3.8620081713691183 3.279951523838066 2.91819453217762 3.6764952784262017 6.0 6.0 6.0 6.0 6.0 6.0 6.0 6.0 6.0 6.0 6.0 6.0 4.272677872215706 2.482969793239888 2.372503371172064 2.198764622883208 1.9430933281154632 1.5472678694395237 0.6933964100490476 0.49189828466104446 1.3607487294439524 1.8572010934762322 2.1165899097136593 2.2897728311424626 2.4182813768770477 2.5196181877290993 5.141030281353423 6.0 6.0 6.0546039891025565 6.343281330965576 6.465015816586091 6.226532149705177 6.0 6.0 6.0 6.209172713236304 6.5272442063294935 6.722619888692758 6.722619888692759 6.5272442063294935 6.212285480873118 6.3631276864677515 6.497633909465952 6.2379052768682905 6.0 6.0 6.915034713595625 8.774650197444714 10.215031619317609 9.624610980687189 9.320129668120561 8.66762895022421 9.211560734555539 9.17615209836973 
2.919550802380709 2.894924894739114 3.28354587390652 3.862933116874555 4.343277542765051 4.358535076964348 3.865910653903708 3.2823527869375995 2.9325631992393464 3.6932938844162093 6.0 6.0 6.0 6.0 6.0 6.0 6.0 6.0 6.0 6.0 6.0 6.45166890705203 4.852619583138456 2.4834844876980093 2.3769734233789697 2.2112237415666214 1.971756429527631 1.6170035693820533 0.8184438626874858 0.3980633781958878 1.2041869613997862 1.7864372264466621 2.067605444900949 2.2507198107035777 2.384860926720486 2.4898002878235865 5.133927463892638 6.0 6.0 6.0 6.0 6.0 6.0 6.0 6.0 6.083434486450526 6.620068759681691 6.812339298471431 6.911994716870498 6.911994716870498 6.812339298471431 6.786557156919554 7.216893649259282 7.433761909163137 6.963862134774062 6.116137531855974 6.0 6.383322859286634 8.170182945144052 8.858848783442486 8.871478051214357 8.10732797339033 7.6701165761985335 8.362874898971853 8.357723461286133 
2.9049232385500368 2.9087250909607185 3.087222697033712 3.663214926001875 3.848802855923054 3.8636703425492165 3.660632164475877 3.0897433311648705 2.90515486563958 3.6658700624090326 6.0 6.0 6.0 6.0 6.0 6.0 6.0 6.0 6.0 6.0 7.227428338863678 9.096820108414372 7.194242100145398 2.633803880037496 2.3806915608051837 2.2222715789947176 1.997170035138783 1.675895349028259 0.9434345122848452 0.30968836698309404 1.0186116775603806 1.7095557224464348 2.0162943247707736 2.2104613799464503 2.3507108286374425 2.4594967027340946 4.476198714227994 6.0 6.0 6.0 6.0 6.0 6.0 6.0 6.0 6.296064582547214 6.76070782149641 6.976408597826313 7.374135760116966 7.374135760116965 6.976408597826313 7.105496160188882 7.557290378436878 7.812563228725192 7.193165170437699 6.233806890816426 6.0 6.0 6.642505581831017 7.546582643425657 7.548065339524373 7.710002405135036 7.730920506211479 7.656092459774836 7.3969097372304535 
2.9194325160574 2.915957683546718 2.9052588119164175 3.0980308351252033 3.305541419438911 3.286772526544474 3.062075085442482 2.897248648439097 2.907153860000377 3.6609537591373544 6.0 6.0 6.0 6.0 6.0 6.0 6.0 6.0 6.0 6.0 8.024222529875264 10.098094552853977 8.662749423763756 3.368955175192483 2.383709637112362 2.2320374658807642 2.0197590614200776 1.7263396323073585 1.08766156397699 0.3268554556935544 0.8627339466668804 1.6251339626450356 1.9623407971138052 2.1688807625813524 2.3157759342529447 2.4286772960895053 4.246125461927522 6.0 6.0 6.0 6.0 6.0 6.0 6.0 6.0 6.340772509557881 6.778217687239406 7.042239460458655 7.685383815292363 7.685383815292363 7.042239460458655 6.945449545213316 7.129551102183011 7.193165170437699 6.718340364757522 6.057393090675592 6.0 6.170280256177099 6.686242011621555 6.844293943190248 6.993770658463511 7.609537255555814 7.944953152014569 7.725567308203379 7.163704358599492 
2.913214880151121 2.89830107709462 2.9165653354755032 2.922034936565433 2.901542511759139 2.897586173259245 2.8896026293860433 2.897881406778787 2.881960598701453 3.655272635398422 6.0 6.0 6.0 6.0 6.0 6.0 6.0 6.0 6.0 6.0 6.675373960670795 8.024222529875264 7.227428338863678 3.351007143514008 2.3860744375691523 2.240633973401186 2.0398709809523106 1.7700110266006437 1.234292949755088 0.38690483063421244 0.697524930215678 1.5311804207481752 1.9053612669888549 2.125843777912936 2.2799947738525295 2.3973091198073004 3.5755654487897632 6.0 6.0 6.0 6.0 6.0 6.0 6.0 6.0 6.252002851131263 6.743662241838907 6.922365156761902 7.171996551891197 7.171996551891195 6.922365156761903 6.660575311129963 6.198194428929521 6.233806890816426 6.057393090675592 6.0 6.0 6.349492620280126 6.790631460813729 7.060718360797629 7.978188349662468 8.37580819608801 8.222709817076744 7.768914392104885 6.823677948846212 
2.8988627373311497 2.9041034800451277 2.897271483551007 2.9295117274138596 2.920436939055172 2.897232193282962 2.905103714821742 2.884314868621215 2.8921101968227236 3.654177496814155 6.0 6.0 6.0 6.0 6.0 6.0 6.0 6.0 6.0 6.0 6.0 6.0 6.0 3.788448055693535 2.3878283129020312 2.2481596833250235 2.0577935736248554 1.8081290246825557 1.3453861574179198 0.47252357190526983 0.564271256095904 1.4247718481284115 1.8448833183908742 2.081195227870645 2.24329856298145 2.365356057740635 3.3361614649893236 6.0 6.0 6.0 6.0 6.0 6.0 6.0 6.0 6.041245560668623 6.5187882826520696 6.76464800136914 6.833475199988939 6.833475199988939 6.76464800136914 6.415030626121657 6.0 6.0 6.0 6.0 6.0 6.354177332509758 6.80883010468176 7.272508248137067 8.649307669885323 9.38267879400601 10.122263253283428 9.731004238466873 7.69857082965977 
2.9103642898722866 2.9038142536511016 2.88281904333179 2.8716255946590565 2.897714798309316 2.8863542078568174 2.9083098088235593 2.8791137118598176 2.903535402953871 3.6782185716522258 6.0 6.0 6.0 6.0 6.0 6.0 6.0 6.0 6.0 6.0 6.0 6.0 6.0 4.22594981673364 2.389009717437613 2.2547014074170346 2.0737678499569867 1.8416107299776585 1.4340033602124322 0.5752649202241755 0.4282489942576832 1.301329563044561 1.7803158567874384 2.0347542950790434 2.2056100067457534 2.332778411380655 2.65253419043641 5.338637539701423 6.0 6.0 6.0 6.35362278361541 7.048734630246642 7.048734630246643 6.3536227836154096 6.0 6.08254549164924 6.342367707857482 6.52435583441524 6.52435583441524 6.342367707857481 6.066036393319392 6.0 6.0 6.0 6.0 6.0 6.303697651317078 6.772915366455031 7.1479185000530325 8.115725510538557 9.14348330765175 11.35296260755149 11.4956201119416 8.517515813529078 
2.908750415229263 2.8985449572904134 2.8933503151742777 2.8999906424041417 2.9066347071769583 2.871737724918283 2.887609593353406 2.896763639013 2.904414032905957 3.6891108152948027 6.0 6.0 6.0 6.0 6.0 6.0 6.0 6.0 6.0 6.0 6.0 6.0 6.0 4.755608664271377 2.389690187525142 2.2611573167644132 2.0901480336489313 1.8756118508868038 1.5174394231948007 0.7125399999610251 0.31051952367868096 1.12313165225255 1.6985520172103854 1.9779266677579295 2.1602189807135272 2.2938929149970058 2.3985331396515326 4.933741884437847 6.0 6.0 6.0 7.057963599258907 8.94062610049744 8.94062610049744 7.0579635992589065 6.0 6.0 6.0 6.0 6.0 6.0 6.0 6.0 6.0 6.0 6.0 6.0 6.06771991292499 6.498207503269844 6.811031662231225 7.277867265986669 7.878098066127306 9.451981522214458 9.358757157649523 7.440760203242933 
2.9068148560768874 2.881228816002405 2.893098340930595 2.8978074904145417 2.9256766403777696 2.8968951286748936 2.8804885202843336 2.888613276153125 2.903243766007544 3.675856656291452 6.0 6.0 6.0 6.0 6.0 6.0 6.0 6.0 6.0 6.0 6.0 6.0 6.0 5.108673504902427 2.389731098640191 2.266554656126824 2.10455407445837 1.905405089714734 1.586644768368936 0.8606403934343654 0.2128905056483095 0.9105521128754914 1.609081566737407 1.918153916558903 2.113298555506021 2.254080365840417 2.363198555305563 4.212462002776913 6.0 6.0 6.0 6.886882295448635 8.539054227139857 8.539054227139857 6.886882295448635 6.0 6.0 6.0 6.0 6.0 6.0 6.0 6.0 6.0 6.0 6.0 6.0 6.0 6.041781871448793 6.257360335764788 6.352594423426956 6.352594423426956 6.257360335764787 6.041781871448793 6.0 
2.900885480011711 2.8827758715468477 2.8782972533945306 2.87838609035512 2.8997835402538565 2.873896903380665 2.8748636785467805 2.8826077312591383 2.87134307202626 3.643325613595054 6.0 6.0 6.0 6.0 6.0 6.0 6.0 6.0 6.0 6.0 6.0 6.0 6.0 5.554190838304369 2.8352192519414725 2.2703257963170933 2.1153482983066545 1.9277753437154794 1.6364683033962937 1.0080369729141112 0.23936337045900186 0.7561488328116109 1.523951387082778 1.8639639400706551 2.071601962811883 2.2190773909144124 2.3323347174860163 4.198040706943421 6.0 6.0 6.141201965914824 6.348823602206591 6.687281021062738 6.514691978597276 6.113962520831651 6.0 6.0 6.0 6.0 6.0 6.0 6.0 6.0 6.0 6.0 6.0 6.0 6.0 6.0 6.0 6.0 6.0 6.0 6.0 6.0 
2.8940085890200464 2.8883464666336125 2.8898524216979866 2.89051880516739 2.896605882737393 2.9085081260693677 2.885852036593237 2.8972793643962267 2.899746208128679 3.6431167054205718 6.0 6.0 6.0 6.0 6.0 6.0 6.0 6.0 6.0 6.0 6.0 6.0 6.0 6.0 3.2806502902871046 2.2733908495962254 2.1248903715903906 1.9476945474322074 1.679635303301372 1.1509113400310078 0.29864898718544985 0.5916674771317553 1.429088182852582 1.8067123282900017 2.0284369285316495 2.1832227123476953 2.3009192266548126 3.509443205855458 6.0 6.141201965914824 6.49161143417537 6.6285413706493905 6.564348294424042 6.263871369589119 6.0 6.0 6.0 6.0 6.0 6.0 6.0 6.063546924764266 6.65981133657871 7.0366134510543645 7.056713557218663 6.9390002247966684 6.408026138073342 6.082940566742216 6.510035410079815 6.692947864700511 6.600625001180691 6.168203391069805 6.0 6.0 6.0 
2.911417742643365 2.8824943033515975 2.8631185626662816 2.884049972602043 2.895966427718502 2.888851234594921 2.9235486908602857 2.897131803253825 2.881984822521331 3.682145453770716 6.0 6.0 6.0 6.0 6.0 6.0 6.0 6.0 6.0 6.0 6.0 6.0 6.0 6.0 3.7298051669442542 2.2757974058660815 2.1332882826989916 1.9654461437348387 1.717335300445946 1.259758873676179 0.3883408740978792 0.4601445886833191 1.3214657739617708 1.745918066903442 1.983646311206853 2.146446885273948 2.268915684834877 3.2640067174978653 6.0 6.234861081374938 6.628541370649389 6.954830902207518 6.7552840946905075 6.373841165628894 6.0 6.0 6.0 6.0 6.0 6.0 6.0 6.5278490692629685 7.454224831668436 7.669772267248962 7.7436674410017465 7.604033236313274 7.389204709506204 7.20125039844001 7.520892186745782 7.6154128074222776 7.566655872120256 7.169102417418175 6.254241542527175 6.0 6.0 
2.894608317694614 2.899955754128635 2.8890896948035443 2.9131941229697382 2.9172049805631453 2.8914299680871904 2.905431519347438 2.8874982952701282 2.9152275206787914 3.6729504962600714 6.0 6.0 6.0 6.0 6.0 6.0 6.0 6.0 6.0 6.0 6.0 6.0 6.0 6.0 4.1790272727938 2.2775884948226714 2.140636887034081 1.9812677166129977 1.7504649872210187 1.3468618432635533 0.4885040170233485 0.3236169657881176 1.196313220392658 1.6809784375023473 1.9370469120297371 2.1086718441010333 2.236284074199748 2.5623316748427927 5.456495019290701 6.200167355870287 6.564348294424042 6.7552840946905075 6.641041174508457 6.330278034729309 6.0 6.0 6.0 6.0 6.0 6.0 6.0 6.829290760843492 7.669772267248961 8.344585697025273 8.762425185807912 8.064084167856771 8.04822540511906 8.190037587333478 7.928560642868622 8.341411153070217 8.10228228798274 7.633717614111861 6.875473782105299 6.0 6.0 
2.896277072083846 2.886182127636186 2.9061466684526938 2.9216253064198328 2.9306191427982315 2.885661937067079 2.8785225667190812 2.872639250368667 2.8996790584445247 3.648243469862707 6.0 6.0 6.0 6.0 6.0 6.0 6.0 6.0 6.0 6.0 6.0 6.0 6.0 6.0 4.632093086610211 2.278803146575398 2.147019940165842 1.9953603601078629 1.779717719065119 1.418712938404475 0.6065590307971551 0.22503547576863808 1.0453287341182276 1.611123800847387 1.8884234078922875 2.069809429054507 2.2029802667647354 2.3073028902327035 5.27059447666967 6.027578313404826 6.263871369589119 6.373841165628893 6.330278034729309 6.084753581104955 6.0 6.0 6.0 6.0 6.0 6.0 6.0 6.84537084577493 7.743667441001746 8.762425185807912 9.492260661899099 8.298868101168713 8.279008889622563 8.295769924472879 8.341411153070217 9.55688873974194 8.81354686520922 7.7759359014687846 7.07626918970011 6.0 6.0 
2.9091380924173347 2.9071106758528873 2.900341521859376 2.9046101668438506 2.902827135203804 2.8932541834157997 2.883465415258165 2.8862004261003267 2.8949621623899806 3.642634280539638 6.0 6.0 6.0 6.0 6.0 6.0 6.0 6.0 6.0 6.0 6.0 6.0 6.0 6.0 5.085336368625791 2.2794768688507236 2.1525117528666096 2.0078957666346438 1.8056409901402417 1.4792205713959892 0.7363915313473524 0.13247923668891154 0.860410965416004 1.5353488303034686 1.8375204049230704 2.0297595848501815 2.168955448631888 2.2770822742838073 4.717005595771887 6.0 6.0 6.0 6.0 6.0 6.0 6.0 6.0 6.0 6.0 6.0 6.0 6.751200179837335 7.604033236313274 8.06408416785677 8.298868101168715 7.89351901619098 8.093882829410466 8.146857679436586 8.102282287982739 8.813546865209222 8.387974802709657 7.700673217239586 6.9748934471703565 6.0 6.0 
2.903332771537019 2.9095596542086026 2.89038142046895 2.8889240958936164 2.8800676191220558 2.8801363277894114 2.8913718253802414 2.8939472551012906 2.918790099623903 3.64987776397555 6.0 6.0 6.0 6.0 6.0 6.0 6.0 6.0 6.0 6.0 6.0 6.0 6.0 6.0 5.542530289704284 2.6457471664402195 2.157178549410518 2.0190216719548193 1.8286748091846428 1.5309411285844985 0.873934600515018 0.1292751147114154 0.7000736961534029 1.4523034012542624 1.7840318626994174 1.9884081397953606 2.134155440310977 2.2463510458970912 4.635965193528327 6.655478107159294 6.910933609294531 6.924821981297113 6.896871813976686 6.501805095017208 6.068918849480819 6.0 6.0 6.0 6.0 6.0 6.0 6.326420910458673 7.30626414276399 7.538189995039246 7.586061024922052 7.493257828229777 7.26732944517984 7.329506434039748 7.633717614111861 7.775935901468785 7.700673217239587 7.40023318011186 6.429782637629741 6.0 6.0 
2.889499517349744 2.8872129943532707 2.900095129026048 2.93208076178658 2.899594452358259 2.89222609999992 2.896883388071328 2.8871366753023273 2.8960097276405397 3.6877202957545188 6.0 6.0 6.0 6.0 6.0 6.0 6.0 6.0 6.0 6.0 6.0 6.606003856806089 7.818242942336894 7.8182429423368935 6.606003856806089 3.0118337115589924 2.161079590771772 2.028866094871685 1.8491781643609442 1.5756466771776798 1.0253309041168903 0.19129070217983601 0.5373743727981198 1.3601100862612483 1.727586762061614 1.945624042135923 2.098519889801577 2.2150767489390017 4.603058211919971 7.288661460461794 7.43356504477554 7.478179972267413 7.391689084112804 7.235778469613851 6.501805095017209 6.0 6.0 6.0 6.0 6.0 6.0 6.0 6.323551285542843 6.669145400587696 6.680357117050604 6.580201807316329 6.160404016621573 6.254241542527175 6.875473782105299 7.07626918970011 6.974893447170356 6.429782637629741 6.0 6.0 6.0 
2.909995504596138 2.9253518331403936 2.8987731092753575 2.9188301305602895 2.940918963748652 2.921329686846924 2.8979980584302747 2.893706921465797 2.897470267775094 3.6873950424447677 6.0 6.0 6.0 6.0 6.0 6.0 6.0 6.0 6.0 6.0 6.0 7.8182429423368935 9.778292101041965 9.778292101041963 7.8182429423368935 3.1961869845431385 2.1642681099040932 2.03754067887724 1.8674477786216 1.6146197726331568 1.141176757711378 0.26832518945799755 0.39682001482545526 1.256037511886766 1.6677292759556996 1.901255885934297 2.0619813087783614 2.1832238223481824 4.744383476057086 7.494929745774496 7.923688830415634 8.142503177769601 7.7647252172901435 7.391689084112804 6.896871813976686 6.0 6.0 6.0 6.0 6.0 6.0 6.0 6.0 6.0 6.0 6.0 6.0 6.0 6.0 6.0 6.0 6.0 6.0 6.0 6.0 
2.9122778970836047 2.908683975047995 2.893462263100279 2.911537832214712 2.922652368934878 2.9066201472605666 2.907591505295635 3.0169906511947353 3.866485447931751 4.678433323066397 6.133568148472797 6.0 6.0 6.0 6.0 6.0 6.0 6.0 6.0 6.0 6.0 7.8182429423368935 9.778292101041965 9.778292101041963 7.8182429423368935 3.7496510962080585 2.1667920955858992 2.0451433551012177 1.883731715429152 1.648820262174443 1.2329613620154134 0.3731591170814719 0.26307671619981365 1.135860491645372 1.603890670316288 1.8551274947273935 2.024463913822774 2.150753196238216 4.390593065723044 7.625066279975087 8.574529933202928 9.25472329704986 8.142503177769601 7.478179972267412 6.924821981297112 6.0 6.0 6.0 6.0 6.0 6.0 6.0 6.0 6.0 6.0 6.0 6.161670233582847 6.602847949817701 6.707335723066661 6.50387281536067 6.078612086447694 6.0 6.0 6.0 6.0 
2.9030722299451592 2.894717050150577 2.880925122044998 2.921323802074579 2.8940037853608027 2.8815108313951185 2.893315313884965 3.875592358959691 5.9081969325510055 6.715500016900052 6.993301693089622 6.0 6.0 6.0 6.0 6.0 6.0 6.0 6.0 6.0 6.0 6.606003856806088 7.818242942336894 7.818242942336894 6.606003856806088 3.935348510000259 2.168694953306392 2.0517604857118057 1.8982394504907816 1.6789859782978886 1.3081870578147645 0.4797474866829743 0.15167363350951985 0.9924362701589621 1.535348354163435 1.807032237442926 1.9858822234055375 2.1176218205195054 3.979551205071482 7.5561973246371545 8.185111143991268 8.574529933202925 7.923688830415633 7.4335650447755395 6.910933609294531 6.0 6.0 6.0 6.0 6.0 6.0 6.0 6.0 6.0 6.0 6.0 6.873318663255718 7.699658821976543 7.892990368105474 7.55920788045726 6.503872815360671 6.0 6.0 6.0 6.0 
2.888479748728913 2.9077127443612465 2.8753704298882936 2.9104096426396158 2.895115406336399 2.8912208127217838 2.875731062704471 3.8941880594456353 5.950531730716679 6.707687329910896 6.993301693089622 6.0 6.0 6.0 6.0 6.0 6.0 6.0 6.0 6.0 6.0 6.0 6.0 6.0 6.0 4.493366994900107 2.1700160656089675 2.057468604932483 1.9111494606929074 1.7056966906387439 1.3712508565403723 0.6140377210728498 0.059838310194673505 0.8145641355009333 1.4634314469814897 1.7589371961531521 1.9484754570411413 2.086263205869649 3.729963681253299 7.355311042620113 7.5561973246371545 7.625066279975086 7.4949297457744954 7.288661460461794 6.655478107159295 6.0 6.0 6.0 6.0 6.0 6.0 6.0 6.0 6.0 6.0 6.0 7.125904767423132 8.274703914803927 8.87568294698064 7.892990368105475 6.707335723066661 6.0 6.0 6.0 6.0 
