ncols         200
nrows         35
xllcorner     -100
yllcorner     26
cellsize      1.0
2.857110474692765 2.9114257290802272 2.849642875376488 2.9382737786816695 2.898283492154682 2.9680338177430574 2.8618173136931486 2.8225780363268274 2.979574362467707 2.9867749694480237 2.8451610565865626 2.8484153932871776 2.989991209524831 2.912146654836871 2.8176004501699836 2.90892393921126 2.9019615139218624 2.931596702729127 2.9173694393525436 2.897251690850251 2.8378763376241825 2.82461555139483 2.9941535407309567 2.991425176701258 2.9903839520465607 2.8607705462556288 2.8631340475047806 2.9080721739158286 2.9474403893564154 2.8036738319321723 4.082899989131529 4.109969221268269 4.155630285186332 4.129206104381758 4.029465845116065 4.184451489722543 4.017482793974873 4.016074359019306 4.025324097887246 4.0670604039938505 4.005310503894655 4.0676903842745755 4.19070893925607 4.171781324260508 4.074952923585595 4.180048057826598 4.059720169592301 4.0175780408566215 4.053360022992167 4.162764470888677 4.130610402508585 4.0598722380760925 4.024610525997437 4.0076354444420925 4.186620338223182 4.134705708652874 4.066081503026831 4.195254114053111 4.005106132335996 4.015062572635538 4.182913866567621 4.1595879468277674 4.058432994550255 4.0316229684266105 4.199483723621038 4.078326248105991 4.120534110517486 4.197409175937062 4.188212408372822 4.079310333720832 4.0569166108068115 4.0120720505503025 4.03322163641205 4.066149361016393 4.036311598677896 3.0530445589666093 3.033335126326498 3.013599752735899 2.993746379293479 2.9730731693544334 2.9514528969310474 2.92880285531656 2.905029396464585 2.880025949055412 2.8536705719752966 2.825822907211483 2.7963203476357745 2.764973165864495 2.7315582498335846 2.6958109421608167 2.6574142564574363 2.6159843987912814 2.571050977861185 2.52202940353241 2.4681814934896615 2.408557740385001 2.341910051531212 2.266554975357607 2.1801497771247997 2.0793058110135734 1.9588750580162853 1.8105155072504984 1.6194525700631053 1.3558465909213482 0.9447961407316667 0.8049999999999999 0.8049999999999999 0.8049999999999999 0.8049999999999999 0.8049999999999999 1.0461393504569128 1.416816945417245 1.6621711808925055 1.842995302644341 1.984864769986476 2.1008430590485907 2.1984580378865544 2.28242308147446 2.355874578935142 2.420999255313628 2.4793791236443585 2.5321935943411065 2.580344088517503 2.6245341615433486 2.6653228633310313 2.7031613531608305 2.7384186793236664 2.7714003414232953 2.8023619218130063 2.8319504536753497 2.8614799067376273 2.890723347708148 2.9194339364833213 2.9474438273212833 2.9746455051685463 3.0009763761197767 3.026406569668857 3.0509295579321356 6.0 6.0 6.0 6.0 7.51077788570139 7.607690746943122 7.7192099043574975 7.845050355922106 7.979278069130725 8.103573756913807 8.183093021894305 8.19414701080087 8.183093021894305 8.103573756913807 7.979278069130725 7.845050355922106 7.7192099043574975 7.607690746943122 7.51077788570139 6.0 6.0 6.0 6.0 6.0 6.0 6.0 6.0 6.0 6.0 6.0 6.0 6.0 6.0 6.0 6.0 6.0 6.0 7.281819043426448 7.376390285921301 7.495422365090403 7.65158285604231 7.869008722175722 8.200951599508947 8.794819914797296 9.514299990809734 9.514299990809734 9.514299990809734 8.794819914797296 8.200951599508947 7.869008722175722 7.65158285604231 7.495422365090403 7.376390285921301 7.281819043426448 6.0 6.0 6.0 6.0 6.0 6.0 6.0 6.0
2.8399398015617954 2.9304117057243637 2.834391065472864 2.800363221275261 2.9674043921703546 2.9831117234082947 2.8274358829506907 2.911177675973331 2.83124774246399 2.8589878954227483 2.9875489541745672 2.8035621321683015 2.9303423333855667 2.941371527923921 2.80080791888036 2.946972061663801 2.9906747729854715 2.8243748829565742 2.8798821583998904 2.941424708567917 2.8278603247882748 2.847687899558852 2.9761824551428258 2.842547846848705 2.911397035998831 2.9990764910894794 2.8091399110102646 2.8085122794034763 2.876851075777459 2.9021773838754097 4.182398506843773 4.04536998108407 4.137138642333795 4.170037920782797 4.0158381658261515 4.171879241874809 4.061751200595773 4.136484219771641 4.123760200988133 4.095880630896602 4.13790491443334 4.14502756424785 4.169681524386953 4.18194397242958 4.066444402181739 4.004066443577499 4.020273720466813 4.16852181945302 4.0104750177450414 4.176825239559776 4.072922849210835 4.007529700559012 4.041424497810029 4.144257758489065 4.058534373888897 4.089646723832763 4.188976616554781 4.104325167575041 4.146109289732008 4.17242588293343 4.17659973711335 4.128896763855941 4.0568847223599285 4.025742263026476 4.015547707451486 4.126942489806158 4.026846705208254 4.152814394656335 4.106328942440149 4.116023482071851 4.182459595581885 4.1375581716260745 4.088408065218194 4.088285079375522 4.08920303610401 4.101216118755454 3.049444691919783 3.031243672787482 3.012406858086647 2.992773979822735 2.972281103002267 2.9508565399944864 2.928419567961116 2.904878872779246 2.8801306469333174 2.854056245518775 2.826519272215667 2.797361921813006 2.766400341423295 2.733418679323666 2.69816135316083 2.660322863331031 2.6195341615433483 2.5753440885175025 2.527193594341106 2.474379123644358 2.415999255313628 2.3508745789351417 2.27742308147446 2.193458037886554 2.0958430590485904 1.9798647699864762 1.8379953026443412 1.6571711808925056 1.4118169454172451 1.0411393504569129 0.8 0.8 0.8 0.8 0.8 0.9397961407316668 1.3508465909213483 1.6144525700631054 1.8055155072504985 1.9538750580162854 2.074305811013573 2.1751497771247994 2.2615549753576065 2.336910051531212 2.4035577403850006 2.463181493489661 2.5170294035324097 2.5660509778611846 2.610984398791281 2.652414256457436 2.6908109421608164 2.7265582498335843 2.7602826376276703 2.793795622386791 2.8269504536753494 2.8594073499247683 2.8909462042365597 2.9214352459341884 2.950805958544805 2.9790339358080717 3.0061247253879397 3.0321035929115543 6.0 6.0 6.0 6.0 7.555479565295858 7.670038674499272 7.809207070043254 7.979278069130725 8.183093021894305 8.404058399022032 8.570818435144435 8.596149754349497 8.570818435144435 8.404058399022032 8.183093021894305 7.979278069130725 7.809207070043254 7.670038674499272 7.555479565295858 6.0 6.0 6.0 6.0 6.0 6.0 6.0 6.0 6.0 6.0 6.0 6.0 6.0 6.0 6.0 6.0 6.0 6.0 7.270719998449828 7.360657527490815 7.471865043893958 7.613590030144747 7.800929992438137 8.058183536537145 8.412879884967658 8.794819914797296 8.869413926850488 8.794819914797296 8.412879884967658 8.058183536537145 7.800929992438137 7.613590030144747 7.471865043893958 7.360657527490815 7.270719998449828 6.0 6.0 6.0 6.0 6.0 6.0 6.0 6.0
2.870428946180923 2.8664890734253077 2.927167496274673 2.9022563168245825 2.8116766235679087 2.88092670298864 2.881257177777567 2.8106987185074823 2.9946428707827732 2.845629335956636 2.8463754881337033 2.8750179651796635 2.889377899265763 2.9027926517377054 2.9354089238287613 2.930093784347051 2.9870225145327303 2.8747791933872415 2.852342680040728 2.811520228974279 2.963403804731102 2.8220647482219574 2.9907931114830517 2.90543422291993 2.9743821719277634 2.968087548814063 2.836048455197105 2.993007679902671 2.878274852671207 2.8039955230243536 4.028799556676214 4.156884494436532 4.188698622930588 4.03000981894461 4.149112140332457 4.012100344667084 4.098243975185115 4.133723517180606 4.150898241037452 4.084675391518534 4.121175507807611 4.189218488579938 4.145331861694292 4.155991744277577 4.051377428570513 4.191461330644066 4.028894362714329 4.082241396264941 4.1859718820613905 4.161393097415006 4.151658476013967 4.129902299208821 4.109355714790262 4.161293972239607 4.054950603062206 4.010966162339509 4.120957926414129 4.040605377538972 4.158263220456159 4.062194520623511 4.052318008847838 4.126438623796758 4.197592436238102 4.018238477443377 4.047438022033127 4.028437248895004 4.162323982648848 4.047881516429809 4.192172269217104 4.067785547703195 4.102805687895175 4.155014613845767 4.1369819592212735 4.026356786862571 4.068030483837119 4.090574221030273 4.129439282305173 3.047877233034575 3.029920652999894 3.011235984005264 2.9917672051269 2.9714517980008757 2.9502197204443954 2.9279921714740698 2.9046800951091973 2.88018235428322 2.854383484286782 2.827150904943078 2.798331428448339 2.767746839835348 2.7351882405634673 2.700408718938751 2.663113721518133 2.622948210264815 2.5794792379305496 2.532171848434092 2.4803550096031213 2.423172235456637 2.359507912574117 2.2878735759980535 2.2062251189038853 2.111654246944608 1.99983511464779 1.863952258472159 1.6924004420926755 1.4630943271262078 1.1259937981493726 0.795 0.795 0.795 0.795 0.795 0.8189470795675505 1.279411925892159 1.563946792579956 1.76636964598233 1.9217869935357088 2.046994669658225 2.1512693271657923 2.2402480860567757 2.3175992747592886 2.3858366266286746 2.4467537652488045 2.5016728236086427 2.55159482510877 2.5972948541269067 2.639384596611913 2.678535673448538 2.7171389666377093 2.7552826376276705 2.7924820009203146 2.828442083833051 2.863001992470523 2.8960921370527064 2.927703071134348 2.9578635716420996 2.9866255936926045 3.014054141402222 3.0402205678567986 6.0 6.0 6.0 7.5893141204794645 7.7192099043574975 7.88475157617591 8.103573756913807 8.404058399022032 8.818360972339422 9.2644854895822 9.351614920952027 9.2644854895822 8.818360972339422 8.404058399022032 8.103573756913807 7.88475157617591 7.7192099043574975 7.5893141204794645 6.0 6.0 6.0 6.0 6.0 6.0 6.0 6.0 6.0 6.0 6.0 6.0 6.0 6.0 6.0 6.0 6.0 6.0 7.249881462871385 7.331690791710485 7.429768139839275 7.548914205771547 7.694516879361611 7.869008722175722 8.058183536537145 8.200951599508947 8.222638470413512 8.200951599508947 8.058183536537145 7.869008722175722 7.694516879361611 7.548914205771547 7.429768139839275 7.331690791710485 7.249881462871385 6.0 6.0 6.0 6.0 6.0 6.0 6.0 6.0
2.814834357745025 2.9794628036672584 2.929834681153188 2.9257686366455427 2.864983404866516 2.9239158724994847 2.8939189428762524 2.8892674312895803 2.868101163394825 2.88385970360177 2.9421974914131996 2.8192123774070197 2.9724377209504254 2.8697828342314597 2.9943873166776176 2.9453206959114504 2.8261694431383795 2.813277332151602 2.992075102222567 2.856385205259899 2.9014954199550838 2.830637619902293 2.884364996959402 2.974268730060328 2.980284995031712 2.8862241274700966 2.934196636913777 2.9067304004095225 2.961095787179085 2.932686269741833 4.032874429310607 4.044037407540504 4.0316072249802515 4.138079389773895 4.000382029462666 4.186518446668149 4.141935643816305 4.022685959910627 4.080291774221067 4.187619091228112 4.028745329351866 4.126335557733003 4.131290039578494 4.02616709051465 4.007903266972126 4.197159857493153 4.0630227884916446 4.122020979375497 4.043165354233736 4.0474392538930255 4.121289814203083 4.020278234167081 4.107185164993542 4.191368443676808 4.0958894643096 4.150657251908022 4.029512083053442 4.19113319102649 4.09638656079631 4.073038613673585 4.14275578820681 4.008038337285892 4.074870977305364 4.078501746889246 4.193815803913728 4.018334292325292 4.116464940831694 4.097218624305999 4.128519843976408 4.193826951812747 4.160215657407664 4.145366192803183 4.192733505753525 4.048289446458776 4.063780753730979 4.115655791800339 4.034980787747342 4.09395035964984 4.163381978488312 3.028568527641556 3.0100337662500087 2.990726589290058 2.970585854101157 2.949543114715847 2.9275214323751104 2.904433936483321 2.8801820709422414 2.8546534402392645 2.827719141357229 2.79923042809202 2.7690144985108787 2.7368691160343843 2.7025556573470166 2.6657900057187964 2.6262304428914867 2.583461279863242 2.5369703081654706 2.4861170712549634 2.430087119270938 2.367824174268981 2.297926176481701 2.218479643885349 2.126783024831664 2.018857076334044 1.888512363537838 1.7253940209458394 1.5103012138892797 1.2015422341174817 0.79 0.79 0.79 0.79 0.79 0.79 1.2015422341174817 1.5103012138892797 1.7253940209458394 1.888512363537838 2.018857076334044 2.126783024831664 2.218479643885349 2.297926176481701 2.367824174268981 2.430087119270938 2.4861170712549634 2.5369703081654706 2.58352312782941 2.6288333118598035 2.673535673448538 2.716907242429981 2.7585432430995946 2.79825129166509 2.8359742722186754 2.8717374964259683 2.9056138874319823 2.937701667355856 2.9681103906916144 2.9969524182624365 3.0243378815910007 6.0 6.0 6.0 7.607690746943122 7.7467260004079295 7.929129043287173 8.183093021894305 8.570818435144435 9.2644854895822 10.10487318531552 10.10487318531552 10.10487318531552 9.2644854895822 8.570818435144435 8.183093021894305 7.929129043287173 7.7467260004079295 7.607690746943122 6.0 6.0 6.0 6.0 6.0 6.0 6.0 6.0 6.0 6.0 6.0 6.0 6.0 6.0 6.0 6.0 6.0 6.0 7.221563896219989 7.293420398181642 7.376390285921301 7.471865043893958 7.57960067367152 7.694516879361611 7.800929992438137 7.869008722175722 7.878472359993262 7.869008722175722 7.800929992438137 7.694516879361611 7.57960067367152 7.471865043893958 7.376390285921301 7.293420398181642 7.221563896219989 6.0 6.0 6.0 6.0 6.0 6.0 6.0 6.0
2.8976676982002383 2.923249940116586 2.863073876858009 2.9307827494263057 2.8911335370572653 2.875257350962694 2.9827308598155717 2.93869345019301 2.9707779226480175 2.8071532868189757 2.860071004062909 2.8995061575393692 2.947200186807434 2.845388884373943 2.8114793094322845 2.982984147564063 2.9840399617840947 2.891727253392657 2.805890636824653 2.992357652812228 2.8784783045714635 2.9862356391478815 2.8050666730721217 2.86658843401221 2.81825370363957 2.846536459377553 2.8923075914054968 2.8536901538182415 2.8790456581493773 2.985507915677649 4.1561284519183355 4.179657355465335 4.194652873385747 4.161412373600572 4.155783945292784 4.001508308283187 4.147789168335674 4.153909620548112 4.083651703321101 4.118526708890693 4.158157737098922 4.0794416531737365 4.051338584648632 4.003537421016562 4.120102991062098 4.17113567857343 4.186882649598459 4.179440252568289 4.0364920788337875 4.162972806852963 4.026683348547532 4.155928790451753 4.104782984842505 4.054618722934272 4.026405449636929 4.197981075728266 4.057809886828545 4.038386610507155 4.080045291974018 4.047426277619639 4.164709811077902 4.15766896367059 4.058349009266122 4.196288772445329 4.139440759837247 4.057756339331165 4.1031992937307376 4.143127454606459 4.0504156192725125 4.091833288299623 4.076061528874183 4.0787222754012085 4.1382030548768345 4.090751178554243 4.1622368460720125 4.007204408801622 4.14688056217949 4.160628800774372 4.043912216563566 4.023959629851841 3.0271877163248315 3.008800672007622 2.989652654411067 2.9696838571061046 2.9488273829194256 2.9270080979605266 2.904141247143019 2.880130769540493 2.854867232597676 2.828225277689402 2.800060432620847 2.7702050946153514 2.73846341279478 2.7046046906051964 2.668354767637127 2.629384596611913 2.587294854126907 2.54159482510877 2.491672823608643 2.4367537652488047 2.375836626628675 2.307599274759289 2.230248086056776 2.1412693271657925 2.0369946696582253 1.9117869935357088 1.75636964598233 1.553946792579956 1.269411925892159 0.8089470795675505 0.785 0.785 0.785 0.785 0.785 1.1159937981493726 1.4530943271262078 1.6824004420926755 1.853952258472159 1.98983511464779 2.1016542469446082 2.1962251189038855 2.2778735759980537 2.349507912574117 2.413172235456637 2.4703550096031215 2.524856214027528 2.5785231278294103 2.6302132775990343 2.679357808517163 2.725741935877179 2.769356223592596 2.810302874247903 2.8487392605600297 2.884845024861616 2.9188035510476373 2.950792002447013 2.9809763761197767 3.0095094418435786 3.0365302991683527 6.0 6.0 7.610063728672893 7.750323807316411 7.935055776831619 8.19414701080087 8.596149754349497 9.351614920952027 10.10487318531552 10.10487318531552 10.10487318531552 9.351614920952027 8.596149754349497 8.19414701080087 7.935055776831619 7.750323807316411 7.610063728672893 6.0 6.0 6.0 6.0 6.0 6.0 6.0 6.0 6.0 6.0 6.0 6.0 6.0 6.0 6.0 6.0 6.0 6.0 6.0 7.249881462871385 7.31830526589154 7.393076851108311 7.471865043893958 7.548914205771547 7.613590030144747 7.65158285604231 7.65665690308359 7.65158285604231 7.613590030144747 7.548914205771547 7.471865043893958 7.393076851108311 7.31830526589154 7.249881462871385 6.0 6.0 6.0 6.0 6.0 6.0 6.0 6.0 6.0
2.870888677391062 2.832669573034095 2.9038521359394895 2.854879748632053 2.922087213436121 2.844108642352438 2.9553763763303427 2.946811367399661 2.8881651427342248 2.906968941300481 2.961333683856154 2.97458173178903 2.8384751710521767 2.961196571122197 2.9405868877051633 2.914697104771656 2.8457978370689294 2.889501304443151 2.9137415821098243 2.8964979242413214 2.9658137565371536 2.88777595431548 2.980403331424024 2.830120232480583 2.910144095013688 2.970890163623902 2.9064139753079363 2.990533743488583 2.8763689897214757 2.9838139491865356 4.055010416153975 4.175416663061584 4.033800166878308 4.034675515619461 4.072796100564496 4.069583134879576 4.023538359179906 4.097188351068911 4.121344806799163 4.1333029805977635 4.101823741843884 4.156120151091631 4.0189488628904355 4.0789800046022435 4.135740006586145 4.049274972723273 4.121626174514295 4.150657079422605 4.062731414620977 4.057301762311207 4.171484939277641 4.180600461226998 4.077347168989949 4.0411881725370415 4.041990159865376 4.198191808628901 4.069262322886528 4.016087008871908 4.164042005191078 4.019404560297118 4.144895069887168 4.044389142483385 4.114169226803321 4.160295217706374 4.194260912685037 4.048618172296902 4.153673158828542 4.118758520324688 4.045786016202962 4.1057381449426 4.199139836474945 4.104639934224281 4.135378804759652 4.079731915199803 4.184670116562365 4.1736662757775616 4.1805250676150445 4.117371378894818 4.151123968793126 4.097512206005911 6.0 3.025778629920054 3.007537158404166 2.9885459109541124 2.9687463792934787 2.948073169354433 2.926452896931047 2.9038028553165596 2.8800293964645847 2.8550259490554115 2.8286705719752963 2.8008229072114825 2.771320347635774 2.7399731658644946 2.7065582498335843 2.6708109421608164 2.632414256457436 2.590984398791281 2.5460509778611846 2.4970294035324097 2.443181493489661 2.3835577403850006 2.3169100515312118 2.2415549753576065 2.1551497771247994 2.054305811013573 1.9338750580162853 1.7855155072504985 1.5944525700631054 1.3308465909213483 0.9197961407316668 0.78 0.78 0.78 0.78 0.78 1.0211393504569128 1.391816945417245 1.6371711808925056 1.8179953026443412 1.9598647699864762 2.0758430590485903 2.173458037886554 2.25742308147446 2.3308745789351417 2.3987833109687933 2.465355009603121 2.5287764477286445 2.588234297373047 2.6435424225434936 2.694830686399952 2.742371080914581 2.786485722292511 2.8275005094881176 2.8657233477081476 2.9014352459341883 2.934887967604895 2.9663048658892444 2.9958831315142302 3.0237965381314953 6.0 6.0 7.607690746943122 7.7467260004079295 7.929129043287173 8.183093021894305 8.570818435144435 9.2644854895822 10.10487318531552 10.10487318531552 10.10487318531552 9.2644854895822 8.570818435144435 8.183093021894305 7.929129043287173 7.7467260004079295 7.607690746943122 6.0 6.0 6.0 6.0 6.0 6.0 6.0 6.0 6.0 6.0 6.0 6.0 6.0 6.0 6.0 6.0 6.0 6.0 6.0 6.0 7.2600854234334715 7.31830526589154 7.376390285921301 7.429768139839275 7.471865043893958 7.495422365090403 7.498502551058301 7.495422365090403 7.471865043893958 7.429768139839275 7.376390285921301 7.31830526589154 7.2600854234334715 6.0 6.0 6.0 6.0 6.0 6.0 6.0 6.0 6.0 6.0
2.804650573543343 2.82598893716701 2.996624685322893 2.861743159702445 2.836590590186351 2.9540836136335082 2.9500763747948837 2.899515789289257 2.8354079503676863 2.822202356188636 2.8832579988491736 2.988204106767295 2.9343292695737673 2.9941195644950147 2.9057999383400346 2.913291455222315 2.833806572473337 2.8785096460048245 2.827279273324053 2.9803760089216893 2.8597759891447065 2.839963661604838 2.9648092171254943 2.8966950934733586 2.8247855662482344 2.832749298826771 2.8987870360799732 2.9595325733531546 2.8408169047232814 2.8681102803078593 6.0 6.0 6.0 6.0 6.0 6.0 6.0 6.0 6.0 6.0 6.0 6.0 6.0 6.0 6.0 6.0 6.0 6.0 6.0 6.0 6.0 6.0 6.0 6.0 6.0 6.0 6.0 6.0 6.0 6.0 6.0 6.0 6.0 6.0 6.0 6.0 6.0 6.0 6.0 6.0 6.0 6.0 6.0 6.0 6.0 6.0 6.0 6.0 6.0 6.0 6.0 6.0 3.0243416707930253 3.006243672787482 2.987406858086647 2.967773979822735 2.947281103002267 2.9258565399944865 2.903419567961116 2.879878872779246 2.8551306469333175 2.829056245518775 2.801519272215667 2.772361921813006 2.741400341423295 2.708418679323666 2.6731613531608303 2.635322863331031 2.5945341615433484 2.5503440885175026 2.502193594341106 2.4493791236443583 2.390999255313628 2.325874578935142 2.25242308147446 2.168458037886554 2.0708430590485905 1.954864769986476 1.812995302644341 1.6321711808925055 1.386816945417245 1.0161393504569127 0.775 0.775 0.775 0.775 0.775 0.9147961407316668 1.3258465909213482 1.5894525700631053 1.7805155072504983 1.9288750580162852 2.049305811013573 2.1501497771247995 2.2394660940672626 2.326012513608176 2.4070187118963053 2.481340734523975 2.54902493925892 2.610589397917438 2.666690860404077 2.7179823398354905 2.765058838453616 2.808442083833051 2.848581603677468 2.8858619094307216 2.920611296548382 2.9531103906916143 2.983599752735899 3.0122863763301893 6.0 6.0 7.5893141204794645 7.7192099043574975 7.88475157617591 8.103573756913807 8.404058399022032 8.818360972339422 9.2644854895822 9.351614920952027 9.2644854895822 8.818360972339422 8.404058399022032 8.103573756913807 7.88475157617591 7.7192099043574975 7.5893141204794645 6.0 6.0 6.0 6.0 6.0 6.0 6.0 6.0 6.0 6.0 6.0 6.0 6.0 6.0 6.0 6.0 6.0 6.0 6.0 6.0 6.0 7.249881462871385 7.293420398181642 7.331690791710485 7.360657527490815 7.376390285921301 7.378421863827521 7.376390285921301 7.360657527490815 7.331690791710485 7.293420398181642 7.249881462871385 6.0 6.0 6.0 6.0 6.0 6.0 6.0 6.0 6.0 6.0 6.0
2.898827231019672 2.844287706406137 2.817580841917247 2.9300410066000424 2.9810464798950433 2.8169070830008205 2.829218534546467 2.817554447785908 2.820436160668154 2.886649787045595 2.9915938928433503 2.8752992078665085 2.814369561954536 2.940495513858546 2.806846784414491 2.979693752545811 2.8582679599910152 2.8977218332440415 2.8580312837477533 2.944278720192716 2.954557588091405 2.96811071883455 2.8542555083027623 2.8210259497168804 2.893891243522359 2.8485979293803108 2.817836980635738 2.9082450645678626 2.9872540961014318 2.920473057913437 6.0 6.0 6.0 6.0 6.0 6.0 6.0 6.0 6.0 6.0 6.0 6.0 6.0 6.0 6.0 6.0 6.0 6.0 6.0 6.0 6.0 6.0 6.0 6.0 6.0 6.0 6.0 6.0 6.0 6.0 6.0 6.0 6.0 6.0 6.0 6.0 6.0 6.0 6.0 6.0 6.0 6.0 6.0 6.0 6.0 6.0 6.0 6.0 6.0 6.0 6.0 6.0 6.0 3.022877233034575 3.004920652999894 2.986235984005264 2.9667672051269003 2.9464517980008758 2.9252197204443955 2.90299217147407 2.8796800951091974 2.85518235428322 2.829383484286782 2.802150904943078 2.7733314284483392 2.7427468398353483 2.7101882405634674 2.675408718938751 2.638113721518133 2.597948210264815 2.5544792379305497 2.507171848434092 2.4553550096031214 2.398172235456637 2.334507912574117 2.2628735759980536 2.1812251189038854 2.086654246944608 1.97483511464779 1.8389522584721592 1.6674004420926756 1.4380943271262079 1.1009937981493727 0.77 0.77 0.77 0.77 0.77 0.7939470795675505 1.254411925892159 1.538946792579956 1.74136964598233 1.896786993535709 2.025078195999616 2.1461016816115226 2.2558352942307014 2.352970305034158 2.4385967508220716 2.514349935491443 2.581798561535916 2.6422836919546286 2.696907242429981 2.746563433683638 2.7919772981933946 2.8337392605600296 2.872333375437842 2.9081595557693496 2.9415508333947464 2.9727867228111897 3.0021035929115545 6.0 6.0 7.555479565295858 7.670038674499272 7.809207070043254 7.979278069130725 8.183093021894305 8.404058399022032 8.570818435144435 8.596149754349497 8.570818435144435 8.404058399022032 8.183093021894305 7.979278069130725 7.809207070043254 7.670038674499272 7.555479565295858 6.0 6.0 6.0 6.0 6.0 6.0 6.0 6.0 6.0 6.0 6.0 6.0 6.0 6.0 6.0 6.0 6.0 6.0 6.0 6.0 6.0 6.0 7.221563896219989 7.249881462871385 7.270719998449828 7.281819043426448 7.283240919204459 7.281819043426448 7.270719998449828 7.249881462871385 7.221563896219989 6.0 6.0 6.0 6.0 6.0 6.0 6.0 6.0 6.0 6.0 6.0 6.0
2.815119705850296 2.95417773618713 2.8090907306785176 2.847205173573518 2.818852923044017 2.8117764897087736 2.9946260894356453 2.943891758345536 2.9209195884853805 2.8033483625399316 2.932301777180964 2.994802140340165 2.814703246280479 2.9975157130040575 2.936753049815983 2.9094492083919734 2.855936808397582 2.9619520143276232 2.917071567772685 2.9666272396539393 2.9424553125076662 2.9189923188474944 2.8756399498915255 2.92462059245666 2.9970578244041337 2.9553129284715753 2.902064493201587 2.977002490556813 2.9964145105888655 2.809888542022562 6.0 6.0 6.0 6.0 6.0 6.0 6.0 6.0 6.0 6.0 6.0 6.0 6.0 6.0 6.0 6.0 6.0 6.0 6.0 6.0 6.0 6.0 6.0 6.0 6.0 6.0 6.0 6.0 6.0 6.0 6.0 6.0 6.0 6.0 6.0 6.0 6.0 6.0 6.0 6.0 6.0 6.0 6.0 6.0 6.0 6.0 6.0 6.0 6.0 6.0 6.0 6.0 6.0 6.0 6.0 3.0035685276415562 2.985033766250009 2.965726589290058 2.9455858541011573 2.924543114715847 2.9025214323751105 2.8794339364833212 2.8551820709422415 2.8296534402392646 2.802719141357229 2.7742304280920203 2.7440144985108788 2.7118691160343844 2.6775556573470167 2.6407900057187965 2.6012304428914867 2.5584612798632422 2.5119703081654707 2.4611170712549635 2.405087119270938 2.3428241742689813 2.2729261764817013 2.193479643885349 2.101783024831664 1.9938570763340442 1.8635123635378381 1.7003940209458395 1.4853012138892798 1.1765422341174818 0.765 0.765 0.765 0.765 0.765 0.765 1.1765422341174818 1.4853012138892798 1.7037380182188229 1.8962054346944908 2.059327754465262 2.194490404523914 2.307485539093804 2.403428002111246 2.486168391823007 2.5585231278294103 2.6225623433206198 2.6798306863999524 2.731501162869332 2.7784802299194875 2.8214799067376273 2.861067908908744 2.897703071134348 2.9317607977743263 2.9635516491755722 2.993335126326498 6.0 6.0 7.51077788570139 7.607690746943122 7.7192099043574975 7.845050355922106 7.979278069130725 8.103573756913807 8.183093021894305 8.19414701080087 8.183093021894305 8.103573756913807 7.979278069130725 7.845050355922106 7.7192099043574975 7.607690746943122 7.51077788570139 6.0 6.0 6.0 6.0 6.0 6.0 6.0 6.0 6.0 6.0 6.0 6.0 6.0 6.0 6.0 6.0 6.0 6.0 6.0 6.0 6.0 6.0 6.0 6.0 6.0 6.0 6.0 6.0 6.0 6.0 6.0 6.0 6.0 6.0 6.0 6.0 6.0 6.0 6.0 6.0 6.0 6.0 6.0
2.9302899772539392 2.8106212322041877 2.88990950941813 2.9205564656777683 2.8910541371841205 2.889439391993979 2.921002874070298 2.960740494638167 2.812632719644575 2.9887767229640527 2.8778197556947913 2.92500977510264 2.8372072475422403 2.9065374352755446 2.928565620933435 2.8832522570923254 2.9073591976667683 2.951969210625259 2.804689375347751 2.8460168733697015 2.800611509026805 2.957386712841419 2.9673450402146506 2.876410568594672 2.8974633014463196 2.974071644086307 2.915810067277186 2.8251171341656796 2.920038074339555 2.878485052499805 6.0 6.0 6.0 6.0 6.0 6.0 6.0 6.0 6.0 6.0 6.0 6.0 6.0 6.0 6.0 6.0 6.0 6.0 6.0 6.0 6.0 6.0 6.0 6.0 6.0 6.0 6.0 6.0 6.0 6.0 6.0 6.0 6.0 6.0 6.0 6.0 6.0 6.0 6.0 6.0 6.0 6.0 6.0 6.0 6.0 6.0 6.0 6.0 6.0 6.0 6.0 6.0 6.0 3.0116158508935706 2.996758854460933 2.9814065696688568 2.965527858846025 2.9490886530380314 2.932051578823126 2.9143755244628347 2.8960151332488726 2.8769202089929715 2.857035014866656 2.836297441962521 2.8146380176434613 2.791978715451094 2.768231517326238 2.743296664107925 2.7134634127947797 2.6796046906051965 2.6433547676371267 2.6043845966119132 2.5622948541269066 2.51659482510877 2.4666728236086426 2.411753765248805 2.3508366266286744 2.2825992747592885 2.205248086056776 2.116269327165792 2.0119946696582254 1.886786993535709 1.73136964598233 1.528946792579956 1.244411925892159 0.7839470795675505 0.76 0.76 0.76 0.76 0.76 1.0948350423159632 1.5033003873960766 1.7883588263785926 1.9936115253748052 2.150287033091658 2.2754248759025826 2.3787833109687933 2.4663407345239747 2.5419808877988235 2.6083508335200944 2.6673268687275087 2.7202826376276708 2.7682512916650897 2.8120278135612855 2.852235966379948 2.8893734847497887 2.9238434159593725 2.955976376119777 2.9860466878055636 6.0 6.0 6.0 7.5398446205987 7.6271814660537 7.7192099043574975 7.809207070043254 7.88475157617591 7.929129043287173 7.935055776831619 7.929129043287173 7.88475157617591 7.809207070043254 7.7192099043574975 7.6271814660537 7.5398446205987 6.0 6.0 6.0 6.0 6.0 6.0 6.0 6.0 6.0 6.0 6.0 6.0 6.0 6.0 6.0 6.0 6.0 6.0 6.0 6.0 6.0 6.0 6.0 6.0 6.0 6.0 6.0 6.0 6.0 6.0 6.0 6.0 6.0 6.0 6.0 6.0 6.0 6.0 6.0 6.0 6.0 6.0 6.0 6.0
2.823650684901582 2.918503980223633 2.930756357507337 2.8906693987206373 2.979884687808659 2.8386622648338413 2.867207199926651 2.8366361459658704 2.9708073992131734 2.84622870641442 2.9839667632941276 2.8693505423424326 2.9633473223493803 2.962484545845766 2.965468334764496 2.8753289283352865 2.8742189757371293 2.8279178152278646 2.8450648027553664 2.9656653510279187 2.859291853265267 2.8024561544249025 2.815599316085899 2.883028298607039 2.9243711767195344 2.882861018530359 2.8023184176259366 2.9761616379122375 2.8280755201800027 2.830455080631726 6.0 6.0 6.0 6.0 6.0 6.0 6.0 6.0 6.0 6.0 6.0 6.0 6.0 6.0 6.0 6.0 6.0 6.0 6.0 6.0 6.0 6.0 6.0 6.0 6.0 6.0 6.0 6.0 6.0 6.0 6.0 6.0 6.0 6.0 6.0 6.0 6.0 6.0 6.0 6.0 6.0 6.0 6.0 6.0 6.0 6.0 6.0 6.0 6.0 6.0 6.0 6.0 2.9977594347762904 2.9826088490220797 2.9669446249626366 2.950733907894013 2.933940694601322 2.9165254250916175 2.898444506689413 2.87964975669385 2.8600877464147842 2.8396990250462366 2.8184171961714295 2.7961678122687412 2.772867042763988 2.7484200580461486 2.7227190541303847 2.695640818420546 2.667043703496128 2.6367638288280455 2.6046102634052892 2.5703588454633266 2.5337441530238882 2.4944489251018327 2.452089905473901 2.4061985657493596 2.356194333240825 2.30134656651053 2.240719140774606 2.1730872396825234 2.0968079445278645 2.009610343880661 1.9082373012645784 1.7605155072504983 1.5694525700631052 1.3058465909213481 0.8947961407316668 0.755 0.755 0.755 0.755 0.755 1.4022471835193793 1.7412921911988466 1.9657085837240045 2.1311016816115225 2.2608644061421037 2.3669454329975954 2.456230223067764 2.533029925113729 2.600213277599034 2.6597803965807723 2.713178290533971 2.761485722292511 2.8055271882180506 2.8459462042365598 2.8832541125074123 2.9178635716420995 2.9501121363845013 2.9802792358582284 6.0 6.0 6.0 6.0 7.5398446205987 7.607690746943122 7.670038674499272 7.7192099043574975 7.7467260004079295 7.750323807316411 7.7467260004079295 7.7192099043574975 7.670038674499272 7.607690746943122 7.5398446205987 6.0 6.0 6.0 6.0 6.0 6.0 6.0 6.0 6.0 6.0 6.0 6.0 6.0 6.0 6.0 6.0 6.0 6.0 6.0 6.0 6.0 6.0 6.0 6.0 6.0 6.0 6.0 6.0 6.0 6.0 6.0 6.0 6.0 6.0 6.0 6.0 6.0 6.0 6.0 6.0 6.0 6.0 6.0 6.0 6.0
2.813920242026215 2.859796159462322 2.868792865094653 2.847446374131177 2.827651486479267 2.886917840213139 2.924180811935439 2.988893492121008 2.869313461217554 2.9168506603668103 2.8029230456324186 2.911526030242446 2.939542535052879 2.9679988412145657 2.8472260403542684 2.9271972640881017 2.901188437016123 2.846089388621368 2.8972304111618916 2.9355353670420214 2.9517287393156346 2.808009613411306 2.9753013480127293 2.8840606019649937 2.979998554138022 2.968929643454709 2.945267692522781 2.868681488353934 2.890306308465567 2.943912555903404 6.0 6.0 6.0 6.0 6.0 6.0 8.13367663456482 8.267668320188054 8.353390685495304 8.36530696861718 8.353390685495304 8.267668320188054 8.13367663456482 6.0 6.0 6.0 6.0 6.0 6.0 6.0 6.0 6.0 6.0 6.0 6.0 6.0 6.0 6.0 6.0 6.0 6.0 6.0 6.0 6.0 6.0 6.0 6.0 6.0 6.0 6.0 6.0 6.0 6.0 6.0 6.0 6.0 6.0 6.0 6.0 6.0 2.998682670096804 2.983728977502185 2.9682739873805977 2.9522860030936853 2.935730326434846 2.918568873165475 2.9007597256590953 2.882256609987454 2.8630082817207114 2.842957800779603 2.8220416705818705 2.800188810069478 2.777319318430177 2.7533429806508902 2.7281574463375926 2.7016459928804446 2.673674754645222 2.6440892588709994 2.6127100509504793 2.579327108429853 2.5436926212719566 2.5055115345813337 2.4644289743420553 2.420013248006517 2.3717324276725336 2.3189213999607734 2.260734359632853 2.1960743632652524 2.123485373411237 2.04098024120239 1.9457534083767625 1.8336724356953922 1.6983096022207818 1.5289113921111213 1.3055377607716911 0.9848919174072108 0.75 0.75 0.75 0.75 0.75 0.75 1.3972471835193794 1.7362921911988467 1.9607085837240046 2.1261016816115226 2.255864406142104 2.3619454329975955 2.451230223067764 2.5280299251137293 2.595213277599034 2.6547803965807724 2.7081782905339713 2.756485722292511 2.8005271882180507 2.84094620423656 2.8782541125074124 2.9128635716420996 2.9451121363845014 2.9752792358582285 6.0 6.0 6.0 6.0 6.0 7.51077788570139 7.555479565295858 7.5893141204794645 7.607690746943122 7.610063728672893 7.607690746943122 7.5893141204794645 7.555479565295858 7.51077788570139 6.0 6.0 6.0 6.0 6.0 6.0 6.0 6.0 6.0 6.0 6.0 6.0 6.0 6.0 6.0 6.0 6.0 6.0 6.0 6.0 6.0 6.0 6.0 6.0 6.0 6.0 6.0 6.0 6.0 6.0 6.0 6.0 6.0 6.0 6.0 6.0 6.0 6.0 6.0 6.0 6.0 6.0 6.0 6.0 6.0 6.0
2.995783007261172 2.8552121838429736 2.9616463073199384 2.8315574779020354 2.838314007246875 2.96440301389853 2.951028785197648 2.831483022168096 2.9000230263354 2.84367844128799 2.9000663723742015 2.8366198766675543 2.981664935239764 2.901241973036525 2.978296853490636 2.80943944965321 2.9444294239257247 2.883281868233234 2.9375189422174914 2.826112893440284 2.8802447323791402 2.9204181112498824 2.9756487607998623 2.9209587223789524 2.982435239200769 2.959122423878722 2.8898228360695004 2.8617612582961875 2.9355038292788582 2.9370988836729333 6.0 6.0 6.0 6.0 6.0 8.13367663456482 8.353390685495304 8.591593022791095 8.77136159508161 8.798668947572146 8.77136159508161 8.591593022791095 8.353390685495304 8.13367663456482 6.0 6.0 6.0 6.0 6.0 6.0 6.0 6.0 6.0 6.0 6.0 6.0 6.0 6.0 6.0 6.0 6.0 6.0 6.0 6.0 6.0 6.0 6.0 6.0 6.0 6.0 6.0 6.0 6.0 6.0 6.0 6.0 6.0 6.0 6.0 2.984768928215858 2.9695181042746492 2.953747305347783 2.937423076836995 2.920508738822003 2.9029639652340364 2.884744292864052 2.8658005457939457 2.8460781572834426 2.8255163665551604 2.804047261945295 2.7815946340408684 2.7580725920225744 2.733383882502559 2.7074178312885686 2.680047802675026 2.651128035028029 2.6204896610330253 2.587935649021519 2.5532342973730477 2.5161107597022863 2.476235846011158 2.4332109867450304 2.3865476810817245 2.3356388328424855 2.2797178405467053 2.217798641911804 2.148585094125725 2.070328934679484 1.9805972362559747 1.8758708940914426 1.750803696400948 1.596732474531934 1.3983138352572944 1.1245593308205342 0.745 0.745 0.745 0.745 0.745 0.745 0.745 1.0798350423159633 1.4883003873960767 1.7733588263785927 1.9786115253748053 2.1352870330916582 2.260424875902583 2.3637833109687936 2.451340734523975 2.5269808877988233 2.5933508335200943 2.6523268687275086 2.7052826376276706 2.75325129166509 2.797027813561286 2.837235966379948 2.874373484749789 2.9088434159593723 2.9409763761197767 2.9710466878055635 6.0 6.0 6.0 6.0 6.0 6.0 6.0 6.0 6.0 6.0 6.0 6.0 6.0 6.0 6.0 6.0 6.0 6.0 6.0 6.0 6.0 6.0 6.0 6.0 6.0 6.0 6.0 6.0 6.0 6.0 6.0 6.0 6.0 6.0 6.0 6.0 6.0 6.0 6.0 6.0 6.0 6.0 6.0 6.0 6.0 6.0 6.0 6.0 6.0 6.0 7.415937621941327 7.431002908341885 7.438844313665355 7.439839709842552 7.438844313665355 7.431002908341885 7.415937621941327 6.0 6.0 6.0
2.8079453639634018 2.9281505818663724 2.817847177566391 2.960118316242458 2.9008456566726437 2.9025431039547778 2.840991448639972 2.96328842525602 2.866337956481384 2.8847566568383 2.880824976061491 2.801502980489112 2.8433179867453076 2.9700835635465928 2.8617179642067225 2.8429776621858664 2.9125549766948664 2.8808617157042136 2.8489029580401395 2.9847762416047314 2.9680999582498546 2.970346028088253 2.8997777828629894 2.86054882269626 2.996509004237232 2.8400187632065883 2.8614540495938283 2.8478033494310258 2.8183027109238563 2.9765476890161184 6.0 6.0 6.0 6.0 6.0 8.267668320188054 8.591593022791095 9.03821431068099 9.519139893292776 9.613066075164921 9.519139893292776 9.03821431068099 8.591593022791095 8.267668320188054 6.0 6.0 6.0 6.0 6.0 6.0 6.0 6.0 6.0 6.0 6.0 6.0 6.0 6.0 6.0 6.0 6.0 6.0 6.0 6.0 6.0 6.0 6.0 6.0 6.0 6.0 6.0 6.0 6.0 6.0 6.0 6.0 6.0 2.985730606082406 2.9706790571669055 2.95512009490864 2.939021450455365 2.9223477810023706 2.9050602736402134 2.8871161839878265 2.8684682963914305 2.8490642892522793 2.8288459849058167 2.8077484581034176 2.785698970119265 2.762615686223252 2.7384061218824316 2.7129652463701603 2.6861731497193277 2.6578921475696706 2.6279631545641626 2.5962010946654788 2.562389026980793 2.5262705340015357 2.4875397223177806 2.445827885338968 2.4006854078485667 2.3515567385749634 2.29774501138336 2.2383607665731464 2.1722454408974956 2.097853265219679 2.0130614369667237 1.9148496958231667 1.7987256562694103 1.657611467301005 1.4794551044176856 1.2413209692537517 0.8912424598213204 0.74 0.74 0.74 0.74 0.74 0.74 0.8912424598213204 1.2413209692537517 1.4794551044176856 1.6787380182188227 1.8712054346944906 2.034327754465262 2.1694904045239136 2.2824855390938037 2.378428002111246 2.4611683918230067 2.53352312782941 2.59756234332062 2.6548306863999525 2.7065011628693316 2.7534802299194876 2.796479906737627 2.8360679089087437 2.8727030711343478 2.906760797774326 2.9385516491755723 2.9683351263264974 6.0 6.0 6.0 6.0 6.0 6.0 6.0 6.0 6.0 6.0 6.0 6.0 6.0 6.0 6.0 6.0 6.0 6.0 6.0 6.0 6.0 6.0 6.0 6.0 6.0 6.0 6.0 6.0 6.0 6.0 6.0 6.0 6.0 6.0 6.0 6.0 6.0 6.0 6.0 6.0 6.0 6.0 6.0 6.0 6.0 6.0 6.0 6.0 7.431002908341885 7.463732690622651 7.4909344005837974 7.510556177891758 7.520867740113635 7.52218166595245 7.520867740113635 7.510556177891758 7.4909344005837974 7.463732690622651 7.431002908341885 6.0
2.821801739616863 2.858500781905199 2.874549042470529 2.9135119639183635 2.895180756732659 2.9274706529891614 2.9361874229335863 2.9547960631932195 2.9293128875616854 2.8084052463387907 2.9217993302727274 2.9685332984993953 2.945799124594162 2.892318782439686 2.941192596214793 2.9072261025026354 2.8859981071335077 2.8030689984429875 2.8300964051261888 2.9938178956701558 2.8088288855864336 2.81668341410504 2.9305580822249917 2.836618149672194 2.9643261081452144 2.80469548664202 2.9064956038488985 2.9891691999729524 2.817190490186869 2.930575767535901 6.0 6.0 6.0 6.0 6.0 8.353390685495304 8.77136159508161 9.519139893292776 10.425084145557175 10.425084145557175 10.425084145557175 9.519139893292776 8.77136159508161 8.353390685495304 6.0 6.0 6.0 6.0 6.0 6.0 6.0 6.0 6.0 6.0 6.0 6.0 6.0 6.0 6.0 6.0 6.0 6.0 6.0 6.0 6.0 6.0 6.0 6.0 6.0 6.0 6.0 6.0 6.0 6.0 6.0 2.9866158508935707 2.9717588544609326 2.956406569668857 2.9405278588460253 2.924088653038031 2.9070515788231255 2.8893755244628343 2.8710151332488723 2.851920208992971 2.8320350148666558 2.8112974419625205 2.7896380176434614 2.7669787154510943 2.743231517326238 2.7182966641079247 2.6920605102140804 2.664392870857467 2.6351437118308647 2.6041389778445723 2.571175277988178 2.536013034157256 2.498367531083678 2.457897053549152 2.4141869046619084 2.3667274773858757 2.314883536570674 2.2578501579865486 2.1945877799898366 2.1237233690007553 2.0433942490020645 1.9509899108117676 1.8427007996002716 1.7126727727694946 1.551272037100023 1.3410561379756634 1.0455670080299053 0.735 0.735 0.735 0.735 0.735 0.735 0.735 1.114559330820534 1.3883138352572941 1.5867324745319338 1.7408036964009477 1.8662054346944905 1.9900781959996157 2.1111016816115225 2.2208352942307013 2.317970305034158 2.4035967508220715 2.479349935491443 2.546798561535916 2.6072836919546285 2.661907242429981 2.711563433683638 2.7569772981933944 2.7987392605600294 2.837333375437842 2.8731595557693494 2.9065508333947463 2.9377867228111896 2.9671035929115543 6.0 6.0 6.0 6.0 6.0 6.0 6.0 6.0 6.0 6.0 6.0 6.0 6.0 6.0 6.0 6.0 6.0 6.0 6.0 6.0 6.0 6.0 6.0 6.0 6.0 6.0 6.0 6.0 6.0 6.0 6.0 6.0 6.0 6.0 6.0 6.0 6.0 6.0 6.0 6.0 6.0 6.0 6.0 6.0 6.0 6.0 7.408694736764987 7.455197442313443 7.500584965186512 7.542599927885462 7.578359560606687 7.60467461754314 7.618690573674057 7.620486128928604 7.618690573674057 7.60467461754314 7.578359560606687 7.542599927885462 7.500584965186512 7.455197442313443
2.954648096240102 2.9410764175631643 2.933877131454243 2.9312024273355273 2.9377003019155263 2.9223128096925954 2.9043545833576907 2.8632818658595784 2.891221477110634 2.9054305721236786 2.808889591587866 2.8807287804080897 2.934862511303149 2.8658409870634003 2.8779632698966138 2.8669542310476714 2.9565168083073026 2.8881777481148236 2.8151190446307917 2.8190041499118976 2.867090842662815 2.8002024619733743 2.8468758979415325 2.8803267874457417 2.881645605394177 2.8430360583778276 2.9129002760832843 2.9619139213430827 2.8588803012101796 2.9222075269843555 6.0 6.0 6.0 6.0 6.0 8.36530696861718 8.798668947572146 9.613066075164921 10.425084145557175 10.425084145557175 10.425084145557175 9.613066075164921 8.798668947572146 8.36530696861718 6.0 6.0 6.0 6.0 6.0 6.0 6.0 6.0 6.0 6.0 6.0 6.0 6.0 6.0 6.0 6.0 6.0 6.0 6.0 6.0 6.0 6.0 6.0 6.0 6.0 6.0 6.0 6.0 6.0 6.0 2.9727594347762905 2.9576088490220798 2.9419446249626366 2.925733907894013 2.908940694601322 2.8915254250916176 2.873444506689413 2.85464975669385 2.8350877464147843 2.8146990250462367 2.7934171961714296 2.7711678122687413 2.747867042763988 2.7234200580461487 2.697719054130385 2.670640818420546 2.642043703496128 2.6117638288280456 2.5796102634052893 2.5453588454633267 2.5087441530238883 2.469448925101833 2.4270899054739012 2.3811985657493597 2.331194333240825 2.2763465665105302 2.215719140774606 2.1480872396825235 2.0718079445278645 1.9846103438806613 1.8832373012645784 1.7627939822207837 1.6154627044804255 1.4276770631928053 1.1728769734426767 0.787928719823562 0.73 0.73 0.73 0.73 0.73 0.73 0.9648919174072108 1.2855377607716911 1.5089113921111212 1.6783096022207817 1.8136724356953922 1.9257534083767625 2.02098024120239 2.1061016816115226 2.1944660940672627 2.281012513608176 2.3620187118963054 2.436340734523975 2.5040249392589202 2.5655893979174382 2.621690860404077 2.6729823398354906 2.720058838453616 2.763442083833051 2.803581603677468 2.8408619094307217 2.875611296548382 2.9081103906916144 2.938599752735899 2.9672863763301893 6.0 6.0 6.0 6.0 6.0 6.0 6.0 6.0 6.0 6.0 6.0 6.0 6.0 6.0 6.0 6.0 6.0 6.0 6.0 6.0 6.0 6.0 6.0 6.0 6.0 6.0 6.0 6.0 6.0 6.0 6.0 6.0 6.0 6.0 6.0 6.0 6.0 6.0 6.0 6.0 6.0 6.0 6.0 6.0 6.0 7.408694736764987 7.463732690622651 7.520867740113635 7.578359560606687 7.633340850310518 7.681668986464855 7.718248394766038 7.738115838536606 7.740681330150533 7.738115838536606 7.718248394766038 7.681668986464855 7.633340850310518 7.578359560606687 7.520867740113635
2.8328496932149685 2.8338417513110876 2.8936298022273017 2.9622589466242712 2.9944908876419434 2.9971018244390173 2.9526544306498574 2.925703278995974 2.9568077122521617 2.886169830532784 2.9188579503637233 2.9636360544831595 2.926929205176084 2.8850668979155523 2.8545433739440647 2.975310516223939 2.8670157929592937 2.8972660351479482 2.9886459004364276 2.950087230623812 2.9780150973885506 2.953006345897968 2.8720955360249163 2.9116316747392146 2.9571878994143104 2.881966893207898 2.9914278579284193 2.887746057811997 2.8132191741052344 2.8422370698720885 6.0 6.0 6.0 6.0 6.0 8.353390685495304 8.77136159508161 9.519139893292776 10.425084145557175 10.425084145557175 10.425084145557175 9.519139893292776 8.77136159508161 8.353390685495304 6.0 6.0 6.0 6.0 6.0 6.0 6.0 6.0 6.0 6.0 6.0 6.0 6.0 6.0 6.0 6.0 6.0 6.0 6.0 6.0 6.0 6.0 6.0 6.0 6.0 6.0 6.0 6.0 2.973682670096804 2.958728977502185 2.9432739873805978 2.9272860030936854 2.9107303264348463 2.893568873165475 2.8757597256590954 2.857256609987454 2.8380082817207115 2.817957800779603 2.7970416705818706 2.775188810069478 2.7523193184301773 2.7283429806508903 2.7031574463375927 2.6766459928804447 2.648674754645222 2.6190892588709995 2.5877100509504793 2.554327108429853 2.5186926212719567 2.4805115345813338 2.4394289743420554 2.395013248006517 2.3467324276725336 2.2939213999607735 2.235734359632853 2.1710743632652525 2.098485373411237 2.01598024120239 1.9207534083767626 1.8086724356953923 1.6733096022207818 1.5039113921111213 1.2805377607716912 0.9598919174072108 0.725 0.725 0.725 0.725 0.725 0.725 0.782928719823562 1.1678769734426768 1.4226770631928054 1.6104627044804256 1.7577939822207838 1.8782373012645786 1.9796103438806614 2.0668079445278646 2.1430872396825236 2.2107191407746063 2.276012513608176 2.3437833109687936 2.4103550096031214 2.473776447728645 2.5332342973730473 2.588542422543494 2.6398306863999523 2.6873710809145814 2.7314857222925113 2.772500509488118 2.810723347708148 2.8464352459341886 2.8798879676048954 2.9113048658892446 2.9408831315142305 2.9687965381314956 6.0 6.0 6.0 6.0 6.0 6.0 6.0 6.0 6.0 6.0 6.0 6.0 6.0 6.0 6.0 6.0 6.0 6.0 6.0 6.0 6.0 6.0 6.0 6.0 6.0 6.0 6.0 6.0 6.0 6.0 6.0 6.0 6.0 6.0 6.0 6.0 6.0 6.0 6.0 6.0 6.0 6.0 6.0 6.0 6.0 7.455197442313443 7.520867740113635 7.591245197515185 7.664765645405981 7.738115838536606 7.8055217874675975 7.858682069430662 7.888430428964911 7.892320110598968 7.888430428964911 7.858682069430662 7.8055217874675975 7.738115838536606 7.664765645405981 7.591245197515185
2.93984439001596 2.9728268797996336 2.8036480744360075 2.879429463495875 2.9530261658178065 2.939197339013011 2.8164040079669426 2.984087631272452 2.8043255387733748 2.966360394804582 2.9384689275815425 2.9667311953141176 2.9996467322647153 2.8248519508290575 2.92472339726171 2.8553856386955125 2.8854381830600264 2.8085977150558197 2.944014458615525 2.964576778542026 2.9009243267270084 2.8084286786099413 2.999521142052362 2.806863162477451 2.8244538476336456 2.9885810068124408 2.8200143522417935 2.915478054784092 2.8524036985680934 2.845773155557709 6.0 6.0 6.0 6.0 6.0 8.267668320188054 8.591593022791095 9.03821431068099 9.519139893292776 9.613066075164921 9.519139893292776 9.03821431068099 8.591593022791095 8.267668320188054 6.0 6.0 6.0 6.0 6.0 6.0 6.0 6.0 6.0 6.0 6.0 6.0 6.0 6.0 6.0 6.0 6.0 6.0 6.0 6.0 6.0 6.0 6.0 6.0 6.0 6.0 6.0 2.9597689282158575 2.944518104274649 2.928747305347783 2.912423076836995 2.895508738822003 2.877963965234036 2.859744292864052 2.840800545793946 2.8210781572834422 2.8005163665551605 2.779047261945295 2.7565946340408685 2.733072592022574 2.7083838825025586 2.6824178312885687 2.6550478026750257 2.626128035028029 2.5954896610330254 2.5629356490215187 2.5282342973730474 2.491110759702286 2.4512358460111576 2.40821098674503 2.361547681081724 2.3106388328424856 2.2547178405467054 2.1927986419118035 2.1235850941257253 2.0453289346794836 1.9555972362559746 1.8508708940914425 1.7258036964009478 1.5717324745319339 1.3733138352572942 1.099559330820534 0.72 0.72 0.72 0.72 0.72 0.72 0.72 1.0305670080299054 1.3260561379756635 1.5362720371000231 1.6976727727694947 1.8277007996002717 1.9359899108117677 2.0283942490020648 2.1087233690007556 2.179587779989837 2.242850157986549 2.2998835365706745 2.3520187118963056 2.405355009603121 2.4598562140275275 2.5135231278294103 2.5652132775990344 2.6143578085171626 2.660741935877179 2.7043562235925958 2.745302874247903 2.7837392605600293 2.819845024861616 2.853803551047637 2.8857920024470127 2.915976376119777 2.9445094418435787 2.9715302991683528 6.0 6.0 6.0 6.0 6.0 6.0 6.0 6.0 6.0 6.0 6.0 6.0 6.0 6.0 6.0 6.0 6.0 6.0 6.0 6.0 6.0 6.0 6.0 6.0 6.0 6.0 6.0 6.0 6.0 6.0 6.0 6.0 6.0 6.0 6.0 6.0 6.0 6.0 6.0 6.0 6.0 6.0 6.0 6.0 7.431002908341885 7.500584965186512 7.578359560606687 7.664765645405981 7.759187756537612 7.858682069430662 7.955980321223953 8.037653430852318 8.085631052547837 8.092038596700203 8.085631052547837 8.037653430852318 7.955980321223953 7.858682069430662 7.759187756537612 7.664765645405981
2.8509242115705016 2.9579791014621524 2.9797810116060024 2.9570321205496723 2.8024336483027192 2.8355320307746457 2.860462307546623 2.9468419343236736 2.9999754052893777 2.8550529965249956 2.8860355592867153 2.935896967065306 2.827878044702007 2.807981862126832 2.9426436466237065 2.8723974827711585 2.856110322553084 2.983922300790054 2.889377480723663 2.875692895494099 2.837389493931763 2.8829779392151424 2.9145987500355237 2.9814650912698046 2.8809586076815976 2.9850283978118335 2.916070949253544 2.9749066880655377 2.9829736208852102 2.8921566721095013 6.0 6.0 6.0 6.0 6.0 8.13367663456482 8.353390685495304 8.591593022791095 8.77136159508161 8.798668947572146 8.77136159508161 8.591593022791095 8.353390685495304 8.13367663456482 6.0 6.0 6.0 6.0 6.0 6.0 6.0 6.0 6.0 6.0 6.0 6.0 6.0 6.0 6.0 6.0 6.0 6.0 6.0 6.0 6.0 6.0 6.0 6.0 6.0 2.9607306060824055 2.945679057166905 2.93012009490864 2.914021450455365 2.8973477810023707 2.8800602736402134 2.862116183987826 2.8434682963914306 2.824064289252279 2.8038459849058164 2.782748458103417 2.7606989701192646 2.737615686223252 2.7134061218824312 2.6879652463701604 2.661173149719328 2.6328921475696707 2.6029631545641623 2.5712010946654784 2.5373890269807933 2.5012705340015358 2.4625397223177803 2.4208278853389675 2.3756854078485663 2.326556738574963 2.2727450113833596 2.2133607665731465 2.1472454408974952 2.072853265219679 1.988061436966724 1.8898496958231668 1.7737256562694104 1.632611467301005 1.4544551044176857 1.2163209692537518 0.8662424598213205 0.7150000000000001 0.7150000000000001 0.7150000000000001 0.7150000000000001 0.7150000000000001 0.7150000000000001 0.8662424598213205 1.2163209692537518 1.4544551044176857 1.632611467301005 1.7737256562694104 1.8898496958231668 1.988061436966724 2.072853265219679 2.1472454408974952 2.2133607665731465 2.2727450113833596 2.326556738574963 2.3756854078485663 2.4208278853389675 2.4637764477286446 2.50852312782941 2.5538333118598033 2.598535673448538 2.6419072424299808 2.6835432430995945 2.7232512916650897 2.760974272218675 2.796737496425968 2.830613887431982 2.862701667355856 2.8931103906916142 2.9219524182624363 2.9493378815910005 6.0 6.0 6.0 6.0 6.0 6.0 6.0 6.0 6.0 6.0 6.0 6.0 6.0 6.0 6.0 6.0 6.0 6.0 6.0 6.0 6.0 6.0 6.0 6.0 6.0 6.0 6.0 6.0 6.0 6.0 6.0 6.0 6.0 6.0 6.0 6.0 6.0 6.0 6.0 6.0 6.0 6.0 6.0 6.0 6.0 7.463732690622651 7.542599927885462 7.633340850310518 7.738115838536606 7.858682069430662 7.994731419972069 8.139848454913059 8.274227721577596 8.36019804528207 8.372148797150267 8.36019804528207 8.274227721577596 8.139848454913059 7.994731419972069 7.858682069430662 7.738115838536606
2.8099841931926144 2.812045012717748 2.9017128983983316 2.834701301886078 2.8262669993586917 2.9351007113484666 2.9352212605080767 2.8646892722305837 2.952727614587809 2.8113044168688544 2.9687951598174966 2.9881388376674543 2.9043822477037557 2.946935734885787 2.8887077203511953 2.996842970106111 2.925484572376549 2.954039272627219 2.8945790914632354 2.9728566477344005 2.9207345417399355 2.820016452822701 2.904128095653182 2.9403282306732645 2.868969912821366 2.876815036421234 2.850731938393864 2.8507166629700498 2.868965037104711 2.9701805684702642 6.0 6.0 6.0 6.0 6.0 6.0 8.13367663456482 8.267668320188054 8.353390685495304 8.36530696861718 8.353390685495304 8.267668320188054 8.13367663456482 6.0 6.0 6.0 6.0 6.0 6.0 6.0 6.0 6.0 6.0 6.0 6.0 6.0 6.0 6.0 6.0 6.0 6.0 6.0 6.0 6.0 6.0 6.0 6.0 6.0 2.9472863763301893 2.931406569668857 2.9155278588460254 2.899088653038031 2.8820515788231256 2.8643755244628344 2.8460151332488723 2.8269202089929713 2.807035014866656 2.7862974419625206 2.7646380176434615 2.7419787154510944 2.718231517326238 2.693296664107925 2.6670605102140805 2.639392870857467 2.610143711830865 2.5791389778445724 2.546175277988178 2.5110130341572563 2.473367531083678 2.4328970535491523 2.3891869046619085 2.341727477385876 2.2898835365706742 2.2328501579865487 2.1695877799898367 2.0987233690007554 2.0183942490020645 1.9259899108117677 1.8177007996002716 1.6876727727694947 1.5262720371000231 1.3160561379756635 1.0205670080299054 0.71 0.71 0.71 0.71 0.71 0.71 0.71 1.089559330820534 1.3633138352572942 1.5617324745319339 1.7158036964009478 1.8408708940914424 1.9455972362559746 2.035328934679484 2.113585094125725 2.1827986419118037 2.244717840546705 2.3006388328424854 2.3515476810817244 2.3982109867450303 2.441235846011158 2.481110759702286 2.518234297373047 2.555213277599034 2.593535673448538 2.6321389666377093 2.6702826376276705 2.7074820009203147 2.743442083833051 2.778001992470523 2.8110921370527064 2.842703071134348 2.8728635716420996 2.9016255936926045 2.929054141402222 2.9552205678567987 6.0 6.0 6.0 6.0 6.0 6.0 6.0 6.0 6.0 6.0 6.0 6.0 6.0 6.0 6.0 6.0 6.0 6.0 6.0 6.0 6.0 6.0 6.0 6.0 6.0 6.0 6.0 6.0 6.0 6.0 6.0 6.0 6.0 6.0 6.0 6.0 6.0 6.0 6.0 6.0 6.0 6.0 6.0 6.0 7.415937621941327 7.4909344005837974 7.578359560606687 7.681668986464855 7.8055217874675975 7.955980321223953 8.139848454913059 8.36019804528207 8.599089400777013 8.779377967200876 8.806764308264952 8.779377967200876 8.599089400777013 8.36019804528207 8.139848454913059 7.955980321223953 7.8055217874675975
2.9958286940035865 2.825386347921872 2.878585068979738 2.81015523195059 2.8873507407526064 2.8029718720727854 2.947533129166111 2.932409919022753 2.8623032463308435 2.8895448515993487 2.869529155747288 2.9750851934726423 2.9498227296240325 2.8091895696895492 2.924312784742971 2.8120936778592394 2.809536812038394 2.8507231031423936 2.8097620813049655 2.87508154044851 2.9775216479217637 2.8103834278459385 2.9729866385615815 2.973217395766865 2.851327170572871 2.839460207134393 2.863775123676701 2.8474064180372696 2.849816902732797 2.9649670038515263 6.0 6.0 6.0 6.0 6.0 6.0 6.0 6.0 6.0 6.0 6.0 6.0 6.0 6.0 6.0 6.0 6.0 6.0 6.0 6.0 6.0 6.0 6.0 6.0 6.0 6.0 6.0 6.0 6.0 6.0 6.0 6.0 6.0 6.0 6.0 6.0 2.9544446919197833 2.9363543986823353 2.918478524637961 2.9009763761197767 2.883940694601322 2.8665254250916177 2.8484445066894133 2.82964975669385 2.8100877464147844 2.789699025046237 2.7684171961714297 2.7461678122687414 2.7228670427639883 2.698420058046149 2.672719054130385 2.645640818420546 2.6170437034961282 2.5867638288280457 2.5546102634052894 2.520358845463327 2.4837441530238884 2.444448925101833 2.4020899054739013 2.35619856574936 2.3061943332408252 2.2513465665105303 2.1907191407746063 2.1230872396825236 2.0468079445278646 1.9596103438806614 1.8582373012645785 1.7377939822207837 1.5904627044804256 1.4026770631928054 1.1478769734426768 0.7629287198235621 0.7050000000000001 0.7050000000000001 0.7050000000000001 0.7050000000000001 0.7050000000000001 0.7050000000000001 0.9398919174072109 1.2605377607716912 1.4839113921111213 1.6533096022207818 1.7886724356953922 1.9007534083767625 1.99598024120239 2.078485373411237 2.1510743632652525 2.215734359632853 2.2739213999607735 2.3267324276725336 2.375013248006517 2.4194289743420554 2.4605115345813338 2.4986926212719567 2.534327108429853 2.5677100509504793 2.599357808517163 2.631907242429981 2.6652826376276706 2.698795622386791 2.7319504536753496 2.7644073499247686 2.79594620423656 2.8264352459341886 2.8558059585448055 2.884033935808072 2.91112472538794 2.9371035929115545 6.0 6.0 6.0 6.0 6.0 6.0 6.0 6.0 6.0 6.0 6.0 6.0 6.0 6.0 6.0 6.0 6.0 6.0 6.0 7.526799535871867 7.535165873870669 7.536227905549637 7.535165873870669 7.526799535871867 6.0 6.0 6.0 6.0 6.0 6.0 6.0 6.0 6.0 6.0 6.0 6.0 6.0 6.0 6.0 6.0 6.0 6.0 6.0 6.0 6.0 7.431002908341885 7.510556177891758 7.60467461754314 7.718248394766038 7.858682069430662 8.037653430852318 8.274227721577596 8.599089400777013 9.047002574376252 9.52931927045325 9.623517140879848 9.52931927045325 9.047002574376252 8.599089400777013 8.274227721577596 8.037653430852318 7.858682069430662
2.9412659749716092 3.8948879422408966 3.7994154084968685 3.8203665457521763 3.924424360601792 3.7990488820229675 3.8234233260930397 3.911571397274376 2.8929694130129975 2.8490461507229545 2.9582238631486475 2.9796205822204587 2.9321689493221403 2.9645387353962867 2.8481646387343127 2.973412125821811 2.8241454922463203 2.823356959367664 2.885836480424436 2.938771953626833 2.8664973236710076 2.9511110348614022 2.837027437035461 2.9320269015504694 2.96749237696562 2.9422931182431005 2.82470047935899 2.961711442322155 2.9122245804738465 2.8291440721233867 6.0 6.0 6.0 6.0 6.0 6.0 6.0 6.0 6.0 6.0 6.0 6.0 6.0 6.0 6.0 6.0 6.0 6.0 6.0 6.0 6.0 6.0 6.0 6.0 6.0 6.0 6.0 6.0 6.0 6.0 6.0 6.0 6.0 6.0 6.0 2.9480445589666093 2.928335126326498 2.908599752735899 2.8889790773062565 2.8696455051685463 2.8508059585448056 2.832256609987454 2.8130082817207116 2.792957800779603 2.7720416705818707 2.7501888100694782 2.7273193184301774 2.7033429806508904 2.678157446337593 2.651645992880445 2.623674754645222 2.5940892588709996 2.5627100509504794 2.529327108429853 2.493692621271957 2.455511534581334 2.4144289743420555 2.3700132480065172 2.3217324276725337 2.2689213999607736 2.2107343596328533 2.1460743632652526 2.0734853734112373 1.9909802412023898 1.8957534083767624 1.7836724356953921 1.6483096022207817 1.4789113921111212 1.255537760771691 0.9348919174072108 0.7 0.7 0.7 0.7 0.7 0.7 0.757928719823562 1.1428769734426767 1.3976770631928053 1.5854627044804255 1.7327939822207836 1.8532373012645784 1.9546103438806612 2.0418079445278647 2.1180872396825237 2.1857191407746064 2.2463465665105304 2.3011943332408253 2.35119856574936 2.3970899054739014 2.439448925101833 2.4787441530238885 2.515358845463327 2.5496102634052895 2.581763828828046 2.6120437034961284 2.6406408184205463 2.668543243099595 2.697482000920315 2.7269504536753497 2.7564799067376273 2.785723347708148 2.8144339364833213 2.8424438273212833 2.8696455051685463 2.8959763761197768 2.921406569668857 2.9459295579321356 6.0 6.0 6.0 6.0 6.0 6.0 6.0 6.0 6.0 6.0 6.0 6.0 6.0 6.0 6.0 6.0 7.526799535871867 7.561720370836042 7.59074306387286 7.611678395528816 7.622680251865166 7.624082136759444 7.622680251865166 7.611678395528816 7.59074306387286 7.561720370836042 7.526799535871867 6.0 6.0 6.0 6.0 6.0 6.0 6.0 6.0 6.0 6.0 6.0 6.0 6.0 6.0 6.0 6.0 6.0 6.0 7.438844313665355 7.520867740113635 7.618690573674057 7.738115838536606 7.888430428964911 8.085631052547837 8.36019804528207 8.779377967200876 9.52931927045325 10.437884034692107 10.437884034692107 10.437884034692107 9.52931927045325 8.779377967200876 8.36019804528207 8.085631052547837 7.888430428964911
3.907822336349215 3.819254279715521 3.9993839743474187 3.974506021655776 3.9594999140912104 4.011158350314075 3.839376221574014 3.914638333645413 3.784446974925435 3.774993158221249 2.8068480325383973 2.820805387275348 2.9386849392676218 2.8805067030574794 2.9908396060683136 2.9569057593120465 2.890157695832854 2.9739863863241176 2.806223944797618 2.902721494224885 2.819193712061136 2.8243945677443993 2.830979755537818 2.841821062607923 2.89629168931976 2.9662290854902444 2.9796173847650094 2.8245949933689958 2.979880420280804 2.8520553359848937 6.0 6.0 6.0 6.0 6.0 6.0 6.0 6.0 6.0 6.0 6.0 6.0 6.0 6.0 6.0 6.0 6.0 6.0 6.0 6.0 6.0 6.0 6.0 6.0 6.0 6.0 6.0 6.0 6.0 6.0 6.0 6.0 6.0 6.0 2.944444691919783 2.9233351263264975 2.9019524182624363 2.8804072115595716 2.858843415959372 2.837443827321283 2.8164352459341884 2.7960781572834423 2.77551636655516 2.7540472619452947 2.731594634040868 2.708072592022574 2.6833838825025587 2.6574178312885683 2.630047802675026 2.6011280350280286 2.570489661033025 2.537935649021519 2.5032342973730475 2.466110759702286 2.4262358460111577 2.38321098674503 2.3365476810817243 2.2856388328424853 2.229717840546705 2.1677986419118036 2.098585094125725 2.0203289346794837 1.9305972362559747 1.8258708940914425 1.7008036964009479 1.546732474531934 1.3483138352572943 1.0745593308205341 0.6950000000000001 0.6950000000000001 0.6950000000000001 0.6950000000000001 0.6950000000000001 0.6950000000000001 0.6950000000000001 1.0055670080299055 1.3010561379756636 1.5112720371000232 1.6726727727694948 1.8027007996002717 1.9109899108117678 2.0033942490020644 2.0837233690007553 2.1545877799898365 2.2178501579865486 2.274883536570674 2.3267274773858757 2.3741869046619084 2.417897053549152 2.458367531083678 2.496013034157256 2.531175277988178 2.5641389778445722 2.5951437118308647 2.624392870857467 2.6520605102140804 2.6782966641079247 2.7032512916650897 2.728442083833051 2.7544073499247683 2.7807233477081477 2.807057993958387 2.8331595557693494 2.858843415959372 2.883979077306256 2.9084785246379607 2.932286376330189 6.0 6.0 6.0 6.0 6.0 6.0 6.0 6.0 6.0 6.0 6.0 6.0 6.0 6.0 6.0 6.0 7.552613741435722 7.60103967296459 7.645867272667207 7.684020787466823 7.712097471646014 7.7270517077211025 7.728967464085604 7.7270517077211025 7.712097471646014 7.684020787466823 7.645867272667207 7.60103967296459 7.552613741435722 6.0 6.0 6.0 6.0 6.0 6.0 6.0 6.0 6.0 6.0 6.0 6.0 6.0 6.0 6.0 6.0 6.0 7.439839709842552 7.52218166595245 7.620486128928604 7.740681330150533 7.892320110598968 8.092038596700203 8.372148797150267 8.806764308264952 9.623517140879848 10.437884034692107 10.437884034692107 10.437884034692107 9.623517140879848 8.806764308264952 8.372148797150267 8.092038596700203 7.892320110598968
4.008960139113935 3.988509417521727 3.930078553773211 3.899427743066409 3.9714603837765803 4.086418867668339 3.9753063158666655 3.9094325776889822 3.8388400388228785 3.8011500730689307 3.8110646080951813 2.833366289028347 2.982382110485619 2.9471003488430814 2.824917538448208 2.8859962623349946 2.826597718193218 2.9367952631613243 2.8783836421197297 2.9570727295260526 2.8323948027329 2.963100247169373 2.8849314995131548 2.8628798814659273 2.89949473284754 2.9157621292396607 2.8042815208153655 2.865751402609052 2.8365889978984353 2.9934151233036674 6.0 6.0 6.0 6.0 6.0 6.0 6.0 6.0 6.0 6.0 6.0 6.0 6.0 6.0 6.0 6.0 6.0 6.0 6.0 6.0 6.0 6.0 6.0 6.0 6.0 6.0 6.0 6.0 6.0 6.0 6.0 6.0 6.0 6.0 2.921354398682335 2.898599752735899 2.8754072115595717 2.8518799906953056 2.8281595557693495 2.804433936483321 2.78094620423656 2.758001992470523 2.7356989701192647 2.712615686223252 2.6884061218824313 2.6629652463701605 2.636173149719328 2.607892147569671 2.5779631545641624 2.5462010946654785 2.5123890269807934 2.476270534001536 2.4375397223177804 2.3958278853389676 2.3506854078485664 2.301556738574963 2.2477450113833597 2.1883607665731466 2.1222454408974953 2.047853265219679 1.9630614369667239 1.8648496958231666 1.7487256562694102 1.607611467301005 1.4294551044176855 1.1913209692537516 0.8412424598213204 0.69 0.69 0.69 0.69 0.69 0.69 0.8412424598213204 1.1913209692537516 1.4294551044176855 1.607611467301005 1.7487256562694102 1.8648496958231666 1.9630614369667239 2.047853265219679 2.1222454408974953 2.1883607665731466 2.2477450113833597 2.301556738574963 2.3506854078485664 2.3958278853389676 2.4375397223177804 2.476270534001536 2.5123890269807934 2.5462010946654785 2.5779631545641624 2.607892147569671 2.636173149719328 2.6629652463701605 2.6884061218824313 2.712615686223252 2.7356989701192647 2.758001992470523 2.78094620423656 2.804433936483321 2.8281595557693495 2.8518799906953056 2.8754072115595717 2.898599752735899 2.921354398682335 6.0 6.0 6.0 6.0 6.0 6.0 6.0 6.0 6.0 6.0 6.0 6.0 6.0 6.0 6.0 6.0 7.561720370836042 7.622680251865166 7.684020787466823 7.742682728062537 7.794246128402158 7.833274297591155 7.854471741531371 7.8572089766429105 7.854471741531371 7.833274297591155 7.794246128402158 7.742682728062537 7.684020787466823 7.622680251865166 7.561720370836042 6.0 6.0 6.0 6.0 6.0 6.0 6.0 6.0 6.0 6.0 6.0 6.0 6.0 6.0 6.0 6.0 7.438844313665355 7.520867740113635 7.618690573674057 7.738115838536606 7.888430428964911 8.085631052547837 8.36019804528207 8.779377967200876 9.52931927045325 10.437884034692107 10.437884034692107 10.437884034692107 9.52931927045325 8.779377967200876 8.36019804528207 8.085631052547837 7.888430428964911
3.9992007261627385 3.935891223838275 4.025985789196966 4.150312518440828 4.140521628710823 4.041878374139214 4.154325493533426 3.9549871265543386 3.966442883708817 4.0068290512669895 3.9760306931046316 3.802665129301594 2.889364860442353 2.9119544712984466 2.809315803332445 2.9616182565223905 2.844021868564977 2.985430842635965 2.891347669160188 2.919794624199346 2.842451584591995 2.8168257659340536 2.9936757574266166 2.8515343444263155 2.8296218399325097 2.860648620203737 2.8425477763136797 2.8442408746426833 2.942328649839693 2.959099089171278 6.0 6.0 6.0 6.0 6.0 6.0 6.0 6.0 6.0 6.0 6.0 6.0 6.0 6.0 6.0 6.0 6.0 6.0 6.0 6.0 6.0 6.0 6.0 6.0 6.0 6.0 6.0 6.0 6.0 6.0 6.0 6.0 6.0 2.9222863763301894 2.898478524637961 2.8739790773062563 2.8488434159593723 2.8231595557693496 2.7970579939583873 2.770723347708148 2.7444073499247685 2.718442083833051 2.69325129166509 2.668296664107925 2.6420605102140806 2.614392870857467 2.585143711830865 2.5541389778445724 2.521175277988178 2.4860130341572564 2.448367531083678 2.4078970535491524 2.3641869046619086 2.316727477385876 2.2648835365706743 2.207850157986549 2.1445877799898367 2.0737233690007555 1.9933942490020646 1.9009899108117678 1.7927007996002717 1.6626727727694948 1.5012720371000232 1.2910561379756635 0.9955670080299055 0.685 0.685 0.685 0.685 0.685 0.685 0.685 1.064559330820534 1.3383138352572943 1.536732474531934 1.6908036964009479 1.8158708940914425 1.9205972362559747 2.010328934679484 2.088585094125725 2.157798641911804 2.2197178405467053 2.2756388328424855 2.3265476810817245 2.3732109867450304 2.416235846011158 2.456110759702286 2.4932342973730477 2.527935649021519 2.560489661033025 2.591128035028029 2.620047802675026 2.6474178312885686 2.673383882502559 2.6980725920225743 2.7215946340408683 2.744047261945295 2.7655163665551603 2.7860781572834425 2.8064352459341886 2.827443827321283 2.8488434159593723 2.870407211559572 2.8919524182624365 2.9133351263264977 2.9344446919197833 6.0 6.0 6.0 6.0 6.0 6.0 6.0 6.0 6.0 6.0 6.0 6.0 6.0 6.0 6.0 7.552613741435722 7.622680251865166 7.697769036570037 7.776211215172473 7.854471741531371 7.926390093997957 7.983109121859382 8.01484894661101 8.018999017920404 8.01484894661101 7.983109121859382 7.926390093997957 7.854471741531371 7.776211215172473 7.697769036570037 7.622680251865166 7.552613741435722 6.0 6.0 6.0 6.0 6.0 6.0 6.0 6.0 6.0 6.0 6.0 6.0 6.0 6.0 6.0 7.431002908341885 7.510556177891758 7.60467461754314 7.718248394766038 7.858682069430662 8.037653430852318 8.274227721577596 8.599089400777013 9.047002574376252 9.52931927045325 9.623517140879848 9.52931927045325 9.047002574376252 8.599089400777013 8.274227721577596 8.037653430852318 7.858682069430662
3.980241172338311 4.043884817023645 4.140170408633596 4.188029681197281 4.1836453859153355 4.16242762515661 4.15270713401597 4.0860986432128685 4.070515005985056 3.9795606906176317 3.921652231093982 3.8193028094084847 3.7598830490551896 2.9380293788568963 2.925705017978006 2.9872611632755683 2.808806436773436 2.975076305758413 2.821460127552335 2.9659679127999405 2.901668936528305 2.96171983186689 2.800628992367627 2.8639116635417317 2.8504001636729517 2.936542024021793 2.971740719771106 2.935892692706 2.8975220885244304 2.9529888221725313 6.0 6.0 6.0 6.0 6.0 6.0 6.0 6.0 6.0 6.0 6.0 6.0 6.0 6.0 6.0 6.0 6.0 6.0 6.0 6.0 6.0 7.122885024913947 7.123661839646866 7.122885024913947 6.0 6.0 6.0 6.0 6.0 6.0 6.0 6.0 2.9259295579321356 2.901406569668857 2.8759763761197767 2.8496455051685463 2.8224438273212833 2.7944339364833213 2.765723347708148 2.7364799067376273 2.7069504536753497 2.677482000920315 2.6485432430995948 2.6206408184205463 2.5920437034961283 2.5617638288280458 2.5296102634052895 2.495358845463327 2.4587441530238885 2.419448925101833 2.3770899054739014 2.33119856574936 2.2811943332408253 2.2263465665105304 2.1657191407746064 2.0980872396825236 2.0218079445278647 1.9346103438806612 1.8332373012645784 1.7127939822207836 1.5654627044804255 1.3776770631928053 1.1228769734426767 0.737928719823562 0.6799999999999999 0.6799999999999999 0.6799999999999999 0.6799999999999999 0.6799999999999999 0.6799999999999999 0.9148919174072108 1.235537760771691 1.4589113921111212 1.6283096022207817 1.7636724356953921 1.8757534083767624 1.9709802412023898 2.0534853734112373 2.1260743632652526 2.1907343596328532 2.2489213999607736 2.3017324276725337 2.3500132480065172 2.3944289743420555 2.435511534581334 2.4736926212719568 2.509327108429853 2.5427100509504794 2.5740892588709996 2.603674754645222 2.6316459928804448 2.6581574463375928 2.6833429806508904 2.7073193184301774 2.7301888100694782 2.7520416705818707 2.772957800779603 2.7930082817207116 2.812256609987454 2.8308059585448055 2.8496455051685463 2.8689790773062565 2.888599752735899 2.908335126326498 2.9280445589666093 6.0 6.0 6.0 6.0 6.0 6.0 6.0 6.0 6.0 6.0 6.0 6.0 6.0 6.0 6.0 7.526799535871867 7.60103967296459 7.684020787466823 7.776211215172473 7.8769542916619955 7.983109121859382 8.086920878504428 8.174061488175369 8.22525090932185 8.232087398179338 8.22525090932185 8.174061488175369 8.086920878504428 7.983109121859382 7.8769542916619955 7.776211215172473 7.684020787466823 7.60103967296459 7.526799535871867 6.0 6.0 6.0 6.0 6.0 6.0 6.0 6.0 6.0 6.0 6.0 6.0 6.0 6.0 7.415937621941327 7.4909344005837974 7.578359560606687 7.681668986464855 7.8055217874675975 7.955980321223953 8.139848454913059 8.36019804528207 8.599089400777013 8.779377967200876 8.806764308264952 8.779377967200876 8.599089400777013 8.36019804528207 8.139848454913059 7.955980321223953 7.8055217874675975
4.129124551012552 4.2822965075322035 4.356540892067253 4.301333328002627 4.289635063787383 4.39406122904954 4.254492405987986 4.246615384562266 4.218313886294689 4.044489586289664 4.0280815333570565 3.976841026946299 3.848512346570521 2.964861974652429 2.986176318168395 2.9651386020530466 2.8840071597675845 2.941811493884583 2.8610041546079796 2.842792998057373 2.9223637076808497 2.9342958979583655 2.9715987974287663 2.9056306744147777 2.8046929346213023 2.9465835647631473 2.8951421613301984 2.861548900568587 2.8476090442784345 2.816639513024903 6.0 6.0 6.0 6.0 6.0 6.0 6.0 6.0 6.0 6.0 6.0 6.0 6.0 6.0 6.0 6.0 6.0 7.116765532673974 7.142308103223629 7.163536524170446 7.178849508134068 7.18689672956897 7.187922127267831 7.18689672956897 7.178849508134068 7.163536524170446 7.142308103223629 7.116765532673974 6.0 6.0 6.0 6.0 2.9071035929115543 2.8811247253879397 2.8540339358080717 2.825805958544805 2.7964352459341884 2.7659462042365597 2.7344073499247683 2.7019504536753494 2.668795622386791 2.6352826376276703 2.6019072424299807 2.5693578085171627 2.537710050950479 2.5043271084298526 2.4686926212719564 2.4305115345813335 2.389428974342055 2.345013248006517 2.2967324276725334 2.243921399960773 2.185734359632853 2.1210743632652522 2.048485373411237 1.96598024120239 1.8707534083767625 1.7586724356953922 1.6233096022207818 1.4539113921111213 1.2305377607716912 0.9098919174072109 0.675 0.675 0.675 0.675 0.675 0.675 0.7329287198235621 1.1178769734426768 1.3726770631928054 1.5604627044804256 1.7077939822207837 1.8282373012645785 1.9296103438806613 2.0168079445278644 2.0930872396825233 2.160719140774606 2.22134656651053 2.276194333240825 2.3261985657493596 2.372089905473901 2.4144489251018326 2.453744153023888 2.4903588454633265 2.524610263405289 2.5567638288280454 2.587043703496128 2.615640818420546 2.6427190541303847 2.6684200580461486 2.692867042763988 2.716167812268741 2.7384171961714294 2.7596990250462365 2.780087746414784 2.79964975669385 2.818444506689413 2.8365254250916174 2.853940694601322 2.8709763761197764 2.8884785246379607 2.906354398682335 2.924444691919783 6.0 6.0 6.0 6.0 6.0 6.0 6.0 6.0 6.0 6.0 6.0 6.0 6.0 6.0 6.0 6.0 7.561720370836042 7.645867272667207 7.742682728062537 7.854471741531371 7.983109121859382 8.1282661191313 8.283097825135123 8.426472936938318 8.518198432089713 8.530949211490173 8.518198432089713 8.426472936938318 8.283097825135123 8.1282661191313 7.983109121859382 7.854471741531371 7.742682728062537 7.645867272667207 7.561720370836042 6.0 6.0 6.0 6.0 6.0 6.0 6.0 6.0 6.0 6.0 6.0 6.0 6.0 6.0 6.0 7.463732690622651 7.542599927885462 7.633340850310518 7.738115838536606 7.858682069430662 7.994731419972069 8.139848454913059 8.274227721577596 8.36019804528207 8.372148797150267 8.36019804528207 8.274227721577596 8.139848454913059 7.994731419972069 7.858682069430662 7.738115838536606
4.208501126173619 4.4425625436141125 4.598102625011754 4.578243584304349 4.7183453697576025 4.558701783619691 4.492623153311664 4.320423521381663 4.173487447161179 4.194530510594468 3.9769919260700433 3.8868891296120562 3.789991966425396 3.901721187486798 2.97030878174421 2.941411773592877 2.8449855566152524 2.9889136200347304 2.8267165507657115 2.922675057566901 2.8680546717654996 2.915777969769454 2.825469881364909 2.824080184720193 2.946765814515288 2.999258847558692 2.807060583750733 2.986479381787692 2.873309918714277 2.9755723795729696 6.0 6.0 6.0 6.0 6.0 6.0 6.0 6.0 6.0 6.0 6.0 6.0 6.0 6.0 6.0 6.0 7.135647130650496 7.1710678980455995 7.203856693879103 8.590600125120472 8.631783058634776 8.657398631816758 8.66643941679243 8.666007920488015 8.654099993279148 8.625924003058909 8.583339499605637 8.529904240453433 7.135647130650496 6.0 6.0 2.9152205678567986 2.889054141402222 2.8616255936926045 2.8328635716420996 2.802703071134348 2.7710921370527064 2.738001992470523 2.703442083833051 2.6674820009203146 2.6302826376276705 2.5921389666377093 2.553535673448538 2.515213277599034 2.478234297373047 2.441110759702286 2.401235846011158 2.3582109867450303 2.3115476810817244 2.2606388328424853 2.204717840546705 2.1427986419118037 2.073585094125725 1.9953289346794838 1.9055972362559745 1.8008708940914424 1.6758036964009477 1.5217324745319338 1.3233138352572942 1.049559330820534 0.6699999999999999 0.6699999999999999 0.6699999999999999 0.6699999999999999 0.6699999999999999 0.6699999999999999 0.6699999999999999 0.9805670080299054 1.2760561379756634 1.486272037100023 1.6476727727694946 1.7777007996002716 1.8859899108117677 1.9783942490020645 2.0587233690007554 2.1295877799898366 2.1928501579865487 2.249883536570674 2.301727477385876 2.3491869046619085 2.3928970535491523 2.433367531083678 2.4710130341572563 2.506175277988178 2.5391389778445723 2.5701437118308648 2.599392870857467 2.6270605102140805 2.6532966641079248 2.678231517326238 2.7019787154510944 2.7246380176434615 2.7462974419625206 2.767035014866656 2.786920208992971 2.8060151332488723 2.8243755244628344 2.8420515788231255 2.859088653038031 2.8755278588460254 2.891406569668857 2.9072863763301893 6.0 6.0 6.0 6.0 6.0 6.0 6.0 6.0 6.0 6.0 6.0 6.0 6.0 6.0 6.0 6.0 6.0 6.0 7.59074306387286 7.684020787466823 7.794246128402158 7.926390093997957 8.086920878504428 8.283097825135123 8.518198432089713 8.77308205850813 8.965439808401111 8.994659492429784 8.965439808401111 8.77308205850813 8.518198432089713 8.283097825135123 8.086920878504428 7.926390093997957 7.794246128402158 7.684020787466823 7.59074306387286 6.0 6.0 6.0 6.0 6.0 6.0 6.0 6.0 6.0 6.0 6.0 6.0 6.0 6.0 6.0 7.431002908341885 7.500584965186512 7.578359560606687 7.664765645405981 7.759187756537612 7.858682069430662 7.955980321223953 8.037653430852318 8.085631052547837 8.092038596700203 8.085631052547837 8.037653430852318 7.955980321223953 7.858682069430662 7.759187756537612 7.664765645405981
4.291544482216765 4.50372698405574 4.82669996871818 5.137777336972658 5.206612732555135 5.121973148946923 4.782190455270725 4.479385446778272 4.288377604950087 4.119125503074316 4.116514505000834 3.877475081633792 3.9998405479561465 3.8511037898678993 2.999019174243809 2.952156073082427 2.8149112626239523 2.8987320435607007 2.8007023801269066 2.849721108128666 2.809471900537186 2.9695947372207363 2.904588385290842 2.8723847824151134 2.891917177288834 2.841209332975053 2.9133498990682307 2.887531197042717 2.879658420777729 2.8193742986336816 6.0 6.0 6.0 6.0 6.0 6.0 6.0 6.0 6.0 6.0 6.0 6.0 6.0 6.0 6.0 7.142308103223629 7.18689672956897 8.590600125120472 8.668831818916772 8.738434582552932 8.793482803552616 8.8281041013234 8.840152310567182 8.839430278860737 8.822645477500618 8.78405254946826 8.727220311310878 8.65781112237253 8.58105694991524 8.501144445631462 6.0 2.8993378815910007 2.8719524182624365 2.8431103906916144 2.812701667355856 2.7806138874319823 2.7467374964259683 2.7109742722186754 2.67325129166509 2.6335432430995946 2.591907242429981 2.548535673448538 2.5038333118598035 2.45852312782941 2.4137764477286447 2.3708278853389677 2.3256854078485665 2.276556738574963 2.22274501138336 2.1633607665731467 2.0972454408974954 2.022853265219679 1.938061436966724 1.8398496958231667 1.7237256562694103 1.582611467301005 1.4044551044176856 1.1663209692537517 0.8162424598213205 0.665 0.665 0.665 0.665 0.665 0.665 0.8162424598213205 1.1663209692537517 1.4044551044176856 1.582611467301005 1.7237256562694103 1.8398496958231667 1.938061436966724 2.022853265219679 2.0972454408974954 2.1633607665731467 2.22274501138336 2.276556738574963 2.3256854078485665 2.3708278853389677 2.4125397223177805 2.451270534001536 2.4873890269807934 2.5212010946654786 2.5529631545641625 2.582892147569671 2.611173149719328 2.6379652463701606 2.6634061218824314 2.687615686223252 2.7106989701192648 2.7327484581034174 2.7538459849058166 2.774064289252279 2.793468296391431 2.8121161839878264 2.8300602736402136 2.847347781002371 2.864021450455365 2.8801200949086403 2.8956790571669053 2.9107306060824056 6.0 6.0 6.0 6.0 6.0 6.0 6.0 6.0 6.0 6.0 6.0 6.0 6.0 6.0 6.0 6.0 6.0 6.0 7.526799535871867 7.611678395528816 7.712097471646014 7.833274297591155 7.983109121859382 8.174061488175369 8.426472936938318 8.77308205850813 9.250980196643031 9.765584956298541 9.866088780580837 9.765584956298541 9.250980196643031 8.77308205850813 8.426472936938318 8.174061488175369 7.983109121859382 7.833274297591155 7.712097471646014 7.611678395528816 7.526799535871867 6.0 6.0 6.0 6.0 6.0 6.0 6.0 6.0 6.0 6.0 6.0 6.0 6.0 6.0 6.0 7.455197442313443 7.520867740113635 7.591245197515185 7.664765645405981 7.738115838536606 7.8055217874675975 7.858682069430662 7.888430428964911 7.892320110598968 7.888430428964911 7.858682069430662 7.8055217874675975 7.738115838536606 7.664765645405981 7.591245197515185
4.412384444623219 4.703623387033426 5.189896847327395 5.741819562683153 5.742992725240933 5.711509482263467 5.0429397342647375 4.568631872855972 4.441095305943154 4.183425759291342 4.035427285704669 3.9935689067340183 3.995582755785296 3.9090679835331827 2.97944547295689 2.903804024684216 2.906221278577128 2.928022574057132 2.849092833067615 2.838397142457368 2.8420397314556167 2.9269221841957296 2.849921780153484 2.905096506546772 2.8569790847445717 2.9515218378383032 2.9714779987405864 2.927015229571019 2.9685327260936565 2.8212982192103566 6.0 6.0 6.0 6.0 6.0 6.0 6.0 6.0 6.0 6.0 6.0 6.0 6.0 6.0 7.135647130650496 7.18689672956897 8.614246227886131 8.716927587587618 8.818389608067495 8.91192696521558 8.988252615849136 9.03710600933343 9.053796646879027 9.05251043658418 9.027545264198778 8.972403476134312 8.894161814019176 8.802079803445158 8.703770644892566 8.604628569942237 8.508073526963377 2.8845094418435786 2.8559763761197767 2.825792002447013 2.7938035510476373 2.759845024861616 2.7237392605600297 2.685302874247903 2.644356223592596 2.600741935877179 2.554357808517163 2.5052132775990343 2.4535231278294103 2.399856214027528 2.3453550096031215 2.2920187118963056 2.2398835365706744 2.182850157986549 2.119587779989837 2.0487233690007556 1.9683942490020645 1.8759899108117677 1.7677007996002716 1.6376727727694946 1.476272037100023 1.2660561379756634 0.9705670080299054 0.6599999999999999 0.6599999999999999 0.6599999999999999 0.6599999999999999 0.6599999999999999 0.6599999999999999 0.6599999999999999 1.039559330820534 1.3133138352572942 1.5117324745319338 1.6658036964009477 1.7908708940914424 1.8955972362559745 1.9853289346794838 2.063585094125725 2.132798641911804 2.1947178405467054 2.2506388328424856 2.3015476810817246 2.3482109867450305 2.391235846011158 2.4311107597022863 2.468234297373048 2.502935649021519 2.5354896610330253 2.566128035028029 2.595047802675026 2.6224178312885686 2.648383882502559 2.6730725920225744 2.6965946340408684 2.719047261945295 2.7405163665551604 2.7610781572834426 2.7808005457939458 2.799744292864052 2.8179639652340365 2.835508738822003 2.852423076836995 2.868747305347783 2.8845181042746493 2.899768928215858 6.0 6.0 6.0 6.0 6.0 6.0 6.0 6.0 6.0 6.0 6.0 6.0 6.0 6.0 6.0 6.0 6.0 6.0 6.0 6.0 7.535165873870669 7.622680251865166 7.7270517077211025 7.854471741531371 8.01484894661101 8.22525090932185 8.518198432089713 8.965439808401111 9.765584956298541 10.734972406360942 10.734972406360942 10.734972406360942 9.765584956298541 8.965439808401111 8.518198432089713 8.22525090932185 8.01484894661101 7.854471741531371 7.7270517077211025 7.622680251865166 7.535165873870669 6.0 6.0 6.0 6.0 6.0 6.0 6.0 6.0 6.0 6.0 6.0 6.0 6.0 6.0 6.0 7.408694736764987 7.463732690622651 7.520867740113635 7.578359560606687 7.633340850310518 7.681668986464855 7.718248394766038 7.738115838536606 7.740681330150533 7.738115838536606 7.718248394766038 7.681668986464855 7.633340850310518 7.578359560606687 7.520867740113635
4.390266081048785 4.594926179110098 5.117063272913162 5.622662950773185 5.730518732794067 5.597550023545723 5.139131180352089 4.658999563262115 4.365777555344511 4.116587957743225 4.007740418804834 3.9841137034711918 3.9688692740498337 3.8020898857759606 2.8674411922379184 2.920107756929827 2.9309798917491694 2.976239712338372 2.8562404554806213 2.8042062595726276 2.809915268323459 2.947653491339143 2.8114564854365383 2.9439150410791015 2.975933252854917 2.87242071688728 2.9810422734627156 2.8102354449816573 2.9588847906341824 2.9951212551438644 6.0 6.0 6.0 6.0 6.0 6.0 6.0 6.0 6.0 6.0 6.0 6.0 6.0 7.116765532673974 7.1710678980455995 8.604190179025519 8.725243086874244 8.854594866205314 8.988252615849136 9.11775064822932 9.22857283999752 9.301652572803736 9.326009004254827 9.323507948468137 9.283566407979428 9.200472157876236 9.088902230939826 8.964172236859863 8.836918766485347 8.713475169401018 5.495911775836988 5.360075060501086 2.841304865889245 2.8098879676048956 2.776435245934189 2.7407233477081476 2.702500509488118 2.661485722292511 2.617371080914581 2.5698306863999525 2.5185424225434936 2.463234297373047 2.403776447728645 2.3403550096031216 2.2737833109687937 2.206012513608176 2.140719140774606 2.0730872396825237 1.9968079445278646 1.9096103438806613 1.8082373012645785 1.6877939822207837 1.5404627044804255 1.3526770631928053 1.0978769734426768 0.7129287198235621 0.655 0.655 0.655 0.655 0.655 0.655 0.8898919174072109 1.2105377607716912 1.4339113921111213 1.6033096022207818 1.7386724356953922 1.8507534083767625 1.9459802412023899 2.028485373411237 2.101074363265252 2.165734359632853 2.2239213999607736 2.276732427672534 2.325013248006517 2.369428974342055 2.4105115345813335 2.448692621271957 2.484327108429853 2.5177100509504795 2.5490892588709997 2.5786747546452222 2.606645992880445 2.6331574463375924 2.6583429806508905 2.682319318430177 2.705188810069478 2.7270416705818707 2.747957800779603 2.7680082817207117 2.7872566099874536 2.8057597256590956 2.823568873165475 2.840730326434846 2.8572860030936855 2.873273987380598 2.8887289775021854 2.9036826700968037 6.0 6.0 6.0 6.0 6.0 6.0 6.0 6.0 6.0 6.0 6.0 6.0 6.0 6.0 6.0 6.0 6.0 6.0 6.0 6.0 6.0 7.536227905549637 7.624082136759444 7.728967464085604 7.8572089766429105 8.018999017920404 8.232087398179338 8.530949211490173 8.994659492429784 9.866088780580837 10.734972406360942 10.734972406360942 10.734972406360942 9.866088780580837 8.994659492429784 8.530949211490173 8.232087398179338 8.018999017920404 7.8572089766429105 7.728967464085604 7.624082136759444 7.536227905549637 6.0 6.0 6.0 6.0 6.0 6.0 6.0 6.0 6.0 6.0 6.0 6.0 6.0 6.0 6.0 6.0 7.408694736764987 7.455197442313443 7.500584965186512 7.542599927885462 7.578359560606687 7.60467461754314 7.618690573674057 7.620486128928604 7.618690573674057 7.60467461754314 7.578359560606687 7.542599927885462 7.500584965186512 7.455197442313443
4.403054017963742 4.577832622082529 5.194678062035363 5.702999972707105 5.592133595830659 5.755063811096884 5.16009334357968 4.678575121102803 4.293633873359111 4.1327298368640335 4.1398878983900405 3.941492475156886 3.8579298425654613 3.7882442697184793 2.9595933228045115 2.9149912579147923 2.9184236744573226 2.8582683173022803 2.9077723972155933 2.8586209961652185 2.9432079654853243 2.8588406674785456 2.813186321980439 2.9165773343036046 2.839958592895552 2.8196017658491384 2.8570512849043856 2.8011071822448583 2.889107425418459 2.837310075578581 6.0 6.0 6.0 6.0 6.0 6.0 6.0 6.0 6.0 6.0 6.0 6.0 6.0 7.142308103223629 8.562693036286937 8.692403438943769 8.838150181436559 9.000806498365328 9.178608030266846 9.363320180537489 9.53386129160624 9.652744798948934 9.691053712885852 9.685516793061485 9.614635362172203 9.480782305911044 9.315740256125906 9.143895798921735 8.978343282498946 8.82494850035769 5.572854456897672 5.418639696332795 4.1869467330994485 2.795611296548382 2.7608619094307216 2.723581603677468 2.683442083833051 2.640058838453616 2.5929823398354905 2.541690860404077 2.485589397917438 2.42402493925892 2.356340734523975 2.2820187118963053 2.201012513608176 2.1144660940672626 2.0261016816115225 1.9409802412023898 1.8457534083767624 1.733672435695392 1.5983096022207817 1.4289113921111212 1.205537760771691 0.8848919174072108 0.65 0.65 0.65 0.65 0.65 0.65 0.7079287198235621 1.0928769734426766 1.3476770631928052 1.5354627044804254 1.6827939822207836 1.8032373012645784 1.9046103438806612 1.9918079445278645 2.0680872396825234 2.135719140774606 2.19634656651053 2.251194333240825 2.3011985657493597 2.347089905473901 2.3894489251018327 2.4287441530238882 2.4653588454633266 2.4996102634052892 2.5317638288280455 2.562043703496128 2.590640818420546 2.6177190541303847 2.6434200580461487 2.667867042763988 2.6911678122687412 2.7134171961714295 2.7346990250462366 2.7550877464147843 2.77464975669385 2.793444506689413 2.8115254250916175 2.828940694601322 2.845733907894013 2.8619446249626366 2.8776088490220797 2.8927594347762904 6.0 6.0 6.0 6.0 6.0 6.0 6.0 6.0 6.0 6.0 6.0 6.0 6.0 6.0 6.0 6.0 6.0 6.0 6.0 6.0 6.0 6.0 6.0 7.535165873870669 7.622680251865166 7.7270517077211025 7.854471741531371 8.01484894661101 8.22525090932185 8.518198432089713 8.965439808401111 9.765584956298541 10.734972406360942 10.734972406360942 10.734972406360942 9.765584956298541 8.965439808401111 8.518198432089713 8.22525090932185 8.01484894661101 7.854471741531371 7.7270517077211025 7.622680251865166 7.535165873870669 6.0 6.0 6.0 6.0 6.0 6.0 6.0 6.0 6.0 6.0 6.0 6.0 6.0 6.0 6.0 6.0 6.0 6.0 7.431002908341885 7.463732690622651 7.4909344005837974 7.510556177891758 7.520867740113635 7.52218166595245 7.520867740113635 7.510556177891758 7.4909344005837974 7.463732690622651 7.431002908341885 6.0
4.379998560990204 4.547500836350682 4.898120506044508 5.095100564973009 5.124323237347733 5.2049798638439135 4.826180405430925 4.556566521212488 4.283299746332242 4.273712874545625 4.133713055630723 4.010718120935115 3.929241859106525 3.810837938635835 2.909141468733718 2.8662411467377553 2.8638373372265806 2.9397275533217537 2.8002750808283468 2.853986833540106 2.863771892874842 2.8497364066692765 2.8242926037120704 2.9013842721114393 2.8150834987652127 2.8387915982945136 2.8079400734066855 2.987028503012064 2.984785829906049 2.9967254685318125 6.0 6.0 6.0 6.0 6.0 6.0 6.0 6.0 6.0 6.0 6.0 6.0 6.0 7.163536524170446 8.625924003058909 8.774338056212356 8.946765928255768 9.148366378637158 9.383849579654813 9.652744798948934 9.933970631324259 11.101248058657273 11.205161756256633 11.195008221571262 11.043090681954961 10.774116865520627 9.575575510990284 9.33729021860354 9.12293851044569 8.934291730643807 5.646590394895189 5.4732740603009535 4.210711053741017 2.7831595557693496 2.747333375437842 2.7087392605600296 2.6669772981933946 2.621563433683638 2.571907242429981 2.5172836919546286 2.456798561535916 2.389349935491443 2.3135967508220716 2.227970305034158 2.1308352942307014 2.0211016816115226 1.9000781959996158 1.7762054346944907 1.6508036964009478 1.496732474531934 1.2983138352572943 1.024559330820534 0.645 0.645 0.645 0.645 0.645 0.645 0.645 0.9555670080299055 1.2510561379756635 1.4612720371000232 1.6226727727694947 1.7527007996002717 1.8609899108117678 1.9533942490020646 2.0337233690007555 2.1045877799898367 2.167850157986549 2.2248835365706743 2.276727477385876 2.3241869046619086 2.3678970535491524 2.408367531083678 2.4460130341572563 2.481175277988178 2.5141389778445724 2.545143711830865 2.574392870857467 2.6020605102140806 2.628296664107925 2.653231517326238 2.6769787154510944 2.6996380176434616 2.7212974419625207 2.742035014866656 2.7619202089929713 2.7810151332488724 2.7993755244628344 2.8170515788231256 2.834088653038031 2.8505278588460254 2.866406569668857 2.8817588544609327 2.896615850893571 6.0 6.0 6.0 6.0 6.0 6.0 6.0 6.0 6.0 6.0 6.0 6.0 6.0 6.0 6.0 6.0 6.0 6.0 6.0 6.0 6.0 6.0 6.0 6.0 7.526799535871867 7.611678395528816 7.712097471646014 7.833274297591155 7.983109121859382 8.174061488175369 8.426472936938318 8.77308205850813 9.250980196643031 9.765584956298541 9.866088780580837 9.765584956298541 9.250980196643031 8.77308205850813 8.426472936938318 8.174061488175369 7.983109121859382 7.833274297591155 7.712097471646014 7.611678395528816 7.526799535871867 6.0 6.0 6.0 6.0 6.0 6.0 6.0 6.0 6.0 6.0 6.0 6.0 6.0 6.0 6.0 6.0 6.0 6.0 6.0 6.0 7.415937621941327 7.431002908341885 7.438844313665355 7.439839709842552 7.438844313665355 7.431002908341885 7.415937621941327 6.0 6.0 6.0
4.158597954255135 4.356775057211397 4.593248221497234 4.600489884637568 4.7494693443467595 4.645054889485992 4.530060297526631 4.398580078837364 4.2777082982174335 4.034680681203508 4.05678340187647 3.964867480923596 3.851774611008103 3.8445498878549618 2.914904816139435 2.879317771913697 2.8274446764663943 2.8590526621187338 2.837641689184678 2.8869944331351243 2.838827287809134 2.901511358684505 2.9153726901964463 2.8495615528589213 2.968199488999713 2.881005184099915 2.9940881201162584 2.9382235935265415 2.9965700112321665 2.960017633459497 6.0 6.0 6.0 6.0 6.0 6.0 6.0 6.0 6.0 6.0 6.0 6.0 6.0 8.537685850541902 8.678347592568134 8.843818147043047 9.04181835392107 9.283566407979428 9.58565290571356 9.971724041924894 11.445467040645616 12.052266652183562 12.284610063497116 12.234144311763108 11.83469371937053 11.326308200343693 10.84238767924675 9.53357514903286 9.26135792429529 9.034300293155834 5.711924136577668 5.520285213540449 4.232808137434219 4.131539413542183 2.736067908908744 2.6964799067376273 2.6534802299194875 2.606501162869332 2.5548306863999524 2.4975623433206198 2.4335231278294103 2.361168391823007 2.278428002111246 2.182485539093804 2.069490404523914 1.934327754465262 1.7712054346944908 1.5787380182188229 1.3794551044176857 1.1413209692537518 0.7912424598213205 0.64 0.64 0.64 0.64 0.64 0.64 0.7912424598213205 1.1413209692537518 1.3794551044176857 1.557611467301005 1.6987256562694104 1.8148496958231668 1.913061436966724 1.9978532652196792 2.0722454408974955 2.1383607665731468 2.19774501138336 2.2515567385749633 2.3006854078485666 2.345827885338968 2.3875397223177806 2.426270534001536 2.4623890269807935 2.4962010946654787 2.5279631545641625 2.557892147569671 2.586173149719328 2.6129652463701607 2.6384061218824315 2.662615686223252 2.685698970119265 2.7077484581034175 2.7288459849058166 2.749064289252279 2.768468296391431 2.7871161839878265 2.8050602736402137 2.822347781002371 2.8390214504553652 2.8551200949086404 2.8706790571669054 2.8857306060824057 6.0 6.0 6.0 6.0 6.0 6.0 6.0 6.0 6.0 6.0 6.0 6.0 6.0 6.0 6.0 6.0 6.0 6.0 6.0 6.0 6.0 6.0 6.0 6.0 6.0 6.0 6.0 7.59074306387286 7.684020787466823 7.794246128402158 7.926390093997957 8.086920878504428 8.283097825135123 8.518198432089713 8.77308205850813 8.965439808401111 8.994659492429784 8.965439808401111 8.77308205850813 8.518198432089713 8.283097825135123 8.086920878504428 7.926390093997957 7.794246128402158 7.684020787466823 7.59074306387286 6.0 6.0 6.0 6.0 6.0 6.0 6.0 6.0 6.0 6.0 6.0 6.0 6.0 6.0 6.0 6.0 6.0 6.0 6.0 6.0 6.0 6.0 6.0 6.0 6.0 6.0 6.0 6.0 6.0 6.0 6.0
4.133986289293386 4.163740175391657 4.3499316536872445 4.304438972161959 4.425598729382713 4.407729369403171 4.293983352819276 4.297350185405206 4.07198602528595 4.152074983755943 3.9323485974933434 4.016474335622218 3.8977391713763256 2.877931678899537 2.8952044556852172 2.85680057103208 2.8424381455852457 2.998920354107187 2.9095256430132883 2.805589232881266 2.954450700080602 2.9996489242878885 2.93045440007444 2.8295401464376955 2.827518924147377 2.9934830772960628 2.8435069998359626 2.86510114965897 2.8487518436132557 2.9094846333564712 6.0 6.0 6.0 6.0 6.0 6.0 6.0 6.0 6.0 6.0 6.0 6.0 7.122885024913947 8.566379535295505 8.715787124210864 8.894161814019176 9.112118076545576 9.38667901942372 9.747538004028174 11.200811963407055 12.13602357870019 13.264330264045764 13.640818042866748 13.706724118871605 12.931767203773976 11.970019538953682 11.223632499564236 10.659406604852515 9.379366974980277 9.115475508358008 5.762657733637738 5.555596124959743 5.374277153613697 4.143856290476324 2.727235966379948 2.6870278135612855 2.6432512916650897 2.5952826376276708 2.5423268687275087 2.4833508335200944 2.4169808877988235 2.3413407345239747 2.2537833109687933 2.1504248759025826 2.025287033091658 1.8686115253748052 1.6633588263785926 1.3783003873960766 0.9698350423159632 0.635 0.635 0.635 0.635 0.635 0.635 0.635 1.014559330820534 1.2883138352572943 1.486732474531934 1.6408036964009478 1.7658708940914425 1.8705972362559746 1.9603289346794839 2.0385850941257253 2.1077986419118035 2.1697178405467055 2.2256388328424856 2.2765476810817242 2.32321098674503 2.3662358460111577 2.406110759702286 2.4432342973730474 2.4779356490215187 2.5104896610330254 2.541128035028029 2.5700478026750257 2.5974178312885687 2.6233838825025586 2.648072592022574 2.6715946340408685 2.694047261945295 2.7155163665551605 2.7360781572834423 2.755800545793946 2.774744292864052 2.792963965234036 2.810508738822003 2.827423076836995 2.843747305347783 2.859518104274649 2.8747689282158575 6.0 6.0 6.0 6.0 6.0 6.0 6.0 6.0 6.0 6.0 6.0 6.0 6.0 6.0 6.0 6.0 6.0 6.0 6.0 6.0 6.0 6.0 6.0 6.0 6.0 6.0 6.0 6.0 6.0 7.561720370836042 7.645867272667207 7.742682728062537 7.854471741531371 7.983109121859382 8.1282661191313 8.283097825135123 8.426472936938318 8.518198432089713 8.530949211490173 8.518198432089713 8.426472936938318 8.283097825135123 8.1282661191313 7.983109121859382 7.854471741531371 7.742682728062537 7.645867272667207 7.561720370836042 6.0 6.0 6.0 6.0 6.0 6.0 6.0 6.0 6.0 6.0 6.0 6.0 6.0 6.0 6.0 6.0 6.0 6.0 6.0 6.0 6.0 6.0 6.0 6.0 6.0 6.0 6.0 6.0 6.0 6.0 6.0
