ncols         65
nrows         65
xllcorner     -100.0
yllcorner     -100.0
cellsize      3.076923076923077
3.8910572554413694 3.8910572554413694 3.8910572554413694 3.8910572554413694 3.8910572554413694 3.8910572554413694 3.8910572554413694 3.8910572554413694 3.8910572554413694 3.8910572554413694 5.538133924807207 5.546790750899042 5.546790750899042 5.546790750899042 5.546790750899042 5.765045453498047 5.575795211949022 5.575795211949022 5.575795211949022 5.575795211949022 5.6500259430388065 5.597328915169665 5.575795211949022 5.575795211949022 5.575795211949022 5.713085481587096 5.656827732878684 5.573127179922265 5.435426270219769 5.166581636991089 4.408928579710259 1.0 1.0 2.7500000000000187 4.91666666666667 5.35 5.535714285714286 5.638888888888889 5.704545454545455 5.674643376432779 5.674643376432779 5.843247035591707 5.663417362385836 5.996278869972724 5.934880929325558 5.946265217929602 5.720330624481116 5.9025332255148175 5.806856970899494 5.554936541273515 5.554936541273515 5.597314015316461 5.76185713729718 5.7763023216998395 5.710886552061339 5.710886552061339 5.710886552061339 5.903921543775523 5.852043569582714 5.852043569582714 5.6703466203795285 5.569565438796086 5.569565438796086 5.569565438796086 5.578018579486578 
3.8910572554413694 3.8910572554413694 3.8910572554413694 3.8910572554413694 3.8910572554413694 3.8910572554413694 3.8910572554413694 3.8910572554413694 3.8910572554413694 3.8910572554413694 5.983767027293784 5.546790750899042 5.546790750899042 5.659666013014698 5.786358257246174 5.575795211949022 5.575795211949022 5.575795211949022 5.862753903289776 5.575795211949022 5.575795211949022 5.575795211949022 5.575795211949022 5.911743591150958 5.723394703672293 5.677566514033154 5.612236967100765 5.511594151556272 5.336401102275119 4.955098583251435 3.4843602955886483 0.9846153846153847 0.9846153846153847 4.039972537594598 5.063468772868695 5.381105535539966 5.538193551782146 5.632103390660069 5.693926547540412 5.674643376432779 5.6822731374208075 5.663417362385836 5.663417362385836 5.663417362385836 5.923875678320835 5.554936541273515 5.554936541273515 5.554936541273515 5.554936541273515 5.664345032491844 5.554936541273515 5.554936541273515 5.625805061454226 5.554936541273515 5.839739084629459 5.7641629603268045 5.710886552061339 5.554936541273515 5.867870553752681 5.554936541273515 5.86172108786894 5.569565438796086 5.778889405257704 5.57787205012738 5.57787205012738 
3.8910572554413694 3.8910572554413694 3.8910572554413694 3.8910572554413694 3.8910572554413694 3.8910572554413694 3.8910572554413694 3.8910572554413694 3.8910572554413694 3.8910572554413694 5.47602812018557 5.847090619116809 5.785336896388617 5.575795211949022 5.575795211949022 5.575795211949022 5.870460574682667 5.774769984522209 5.933543937462694 5.575795211949022 5.575795211949022 5.751385318807422 5.575795211949022 5.575795211949022 5.691424648227799 5.6390083989819555 5.562212498924092 5.438873629134189 5.208283568222631 4.622939567447143 0.9692307692307692 0.9692307692307692 0.9692307692307692 4.622939567447146 5.208283568222634 5.438873629134189 5.562212498924092 5.6390083989819555 5.691564530472823 5.674643376432779 5.615239453761257 5.663417362385836 5.714941150554034 5.663417362385836 5.663417362385836 5.858743030328369 5.554936541273515 5.554936541273515 5.554936541273515 5.554936541273515 5.554936541273515 5.866292296338759 5.595813637396875 5.554936541273515 5.7977005259353955 5.698143054282297 5.554936541273515 5.554936541273515 5.6615859435415645 5.554936541273515 5.554936541273515 5.569565438796086 5.889419103098034 5.947695680646375 5.57787205012738 
3.8910572554413694 3.8910572554413694 3.8910572554413694 3.8910572554413694 3.8910572554413694 3.8910572554413694 3.8910572554413694 3.8910572554413694 3.8910572554413694 3.8910572554413694 5.538095388769263 5.882091236032673 5.573602736027363 5.829080569826724 5.575795211949022 5.657026503177514 5.622336954077068 5.958148047602169 5.575795211949022 5.575795211949022 5.629614729766531 5.575795211949022 5.575795211949022 5.700197086843442 5.657205719554846 5.596666855413764 5.505082419918279 5.350336304770735 5.032699542099461 4.009203306825361 0.9538461538461538 0.9538461538461538 3.453591064819427 4.924329352482206 5.3056318715058906 5.480824920787042 5.581467736331534 5.646797283263924 5.692625472903062 5.7878372240435 5.615239453761257 5.615239453761257 5.729149989032178 5.729726322348516 5.715169651339699 5.567540050742827 5.554936541273515 5.554936541273515 5.963468768848784 5.554936541273515 5.554936541273515 5.710961094530875 5.554936541273515 5.554936541273515 5.581566865981641 5.554936541273515 5.847871339680361 5.554936541273515 5.912254881220051 5.554936541273515 5.554936541273515 5.554936541273515 5.554936541273515 5.554936541273515 5.808354405209084 
3.8910572554413694 3.8910572554413694 3.8910572554413694 3.8910572554413694 3.8910572554413694 3.8910572554413694 3.8910572554413694 3.8910572554413694 3.8910572554413694 3.8910572554413694 5.732104354791212 5.973966749629659 5.573602736027363 5.829124492781819 5.575795211949022 5.6610737922745065 5.622336954077068 5.622336954077068 5.575795211949022 5.575795211949022 5.62881723851692 5.575795211949022 5.645313345791939 5.669203298104813 5.620247254403591 5.54953296905738 5.438410520656191 5.238390113534052 4.771675830249061 2.438104413824113 0.9384615384615385 0.9384615384615385 4.347390118171802 5.105043175452629 5.373887808681309 5.511588718383804 5.5952892713402225 5.651547020048635 5.742825142154202 5.794854788048818 5.615239453761257 5.792362462373061 5.619721498041632 5.66674976410202 5.639781138904008 5.856809740305098 5.636847698496858 5.648068620973749 5.924499176436472 5.882062884176465 5.554936541273515 5.554936541273515 5.750396149187356 5.554936541273515 5.554936541273515 5.554936541273515 5.554936541273515 5.554936541273515 5.554936541273515 5.554936541273515 5.554936541273515 5.772751881628077 5.554936541273515 5.554936541273515 5.555164176271011 
3.8910572554413694 3.8910572554413694 3.8910572554413694 3.8910572554413694 3.8910572554413694 3.8910572554413694 3.8910572554413694 3.8910572554413694 3.8910572554413694 3.8910572554413694 5.0001258972500136 5.573602736027363 5.573602736027363 5.573602736027363 5.856449448319443 5.622336954077068 5.622336954077068 5.622336954077068 5.665957947967186 5.575795211949022 5.85532410791741 5.595199828665043 5.7282519758557715 5.636162404664019 5.579904655955606 5.496204102999188 5.358503193296693 5.089658560068011 4.332005502787179 0.9230769230769231 0.9230769230769231 2.4227197984394993 4.756291214864449 5.223005498149439 5.423025905271577 5.534148353672765 5.604862639018975 5.653818682720198 5.653818682720198 5.934082336967113 5.615239453761257 5.615239453761257 5.615239453761257 5.628277255486105 5.577249476640147 5.552339821798453 5.669668444110492 5.9269511820025205 5.896788821002539 5.554936541273515 5.554936541273515 5.554936541273515 5.554936541273515 5.554936541273515 5.6783080062188445 5.937153185057718 5.554936541273515 5.621638397475575 5.740513272940124 5.823344090082305 5.831396875427157 5.725209923833297 5.595316974137178 5.629682869463791 5.555164176271011 
3.8910572554413694 3.8910572554413694 3.8910572554413694 3.8910572554413694 3.8910572554413694 3.8910572554413694 3.8910572554413694 3.8910572554413694 3.8910572554413694 3.8910572554413694 5.738251034644665 5.900253856515198 5.573602736027363 5.573602736027363 5.573602736027363 5.932585887436803 5.622336954077068 5.622336954077068 5.774533040427056 5.575795211949022 5.547110952082785 5.768245994745283 5.651804643459148 5.605039179525491 5.538069720568789 5.435199270972179 5.259478025352044 4.878175506328357 3.4074372186655615 0.9076923076923077 0.9076923076923077 3.963049460671517 4.986545695945617 5.30418245861689 5.4589285737644335 5.550180878865595 5.594318092300991 5.62875481926707 5.65637239237848 5.93061192490273 5.615239453761257 5.615239453761257 5.615239453761257 5.675506807936173 5.552339821798453 5.552339821798453 5.552339821798453 5.552339821798453 5.811447663261056 5.554936541273515 5.554936541273515 5.554936541273515 5.554936541273515 5.554936541273515 5.746560779840485 5.720768265960896 5.720768265960896 5.6843454317414945 5.673236622214119 5.945777480530661 5.554936541273515 5.792870847316563 5.610996022751861 5.555164176271011 5.555164176271011 
3.8910572554413694 3.8910572554413694 3.8910572554413694 3.8910572554413694 3.8910572554413694 3.8910572554413694 3.8910572554413694 3.8910572554413694 3.8910572554413694 3.8910572554413694 5.357830500671357 5.7019852046765545 5.8510145222859204 5.573602736027363 5.573602736027363 5.583664307147856 5.979931301407596 5.622336954077068 5.935029417898656 5.922337282634654 5.547110952082785 5.8351965946277495 5.632359676712891 5.5828715790059364 5.510120021483087 5.3926771049920355 5.171197437214895 4.598759345034704 0.8923076923076922 0.8923076923076922 0.8923076923076922 4.546016490524067 5.017021090697464 5.241453552648805 5.374280928089394 5.462082074567072 5.524433613370061 5.57099995247609 5.607101945715596 5.635910606987525 5.615239453761257 5.832063680920692 5.9361866582923755 5.552339821798453 5.552339821798453 5.7243067936930245 5.552339821798453 5.983273797202492 5.686973189184335 5.686973189184335 5.554936541273515 5.554936541273515 5.554936541273515 5.951045985117636 5.994707405184853 5.872977938771665 5.554936541273515 5.554936541273515 5.673236622214119 5.554936541273515 5.554936541273515 5.841348903956422 5.610996022751861 5.826496022171075 5.669856476590303 
3.8910572554413694 3.8910572554413694 3.8910572554413694 3.8910572554413694 3.8910572554413694 3.8910572554413694 3.8910572554413694 3.8910572554413694 3.8910572554413694 3.8910572554413694 5.180870205745046 5.361909134120858 5.796681929191438 5.573602736027363 5.731204202725919 5.991350046639859 5.518230642987344 5.999701237379284 5.710258099707771 5.991325422203251 5.547110952082785 5.990663491965241 5.616923076923078 5.567399267399267 5.494570135746606 5.376923076923077 5.154700854700854 4.576923076923075 0.8769230769230769 0.8769230769230769 0.8769230769230769 2.2507357273949893 4.383787109470335 4.936800430749129 5.190887632417763 5.336852620610383 5.431601823472258 5.498067682196261 5.547269681511432 5.585160876386334 5.615239453761257 5.59434570946797 5.59434570946797 5.956286878843033 5.552339821798453 5.730983120373359 5.569934906022157 5.945893017565686 5.94819330301772 5.522580647562302 5.522580647562302 5.865003187768771 5.554936541273515 5.554936541273515 5.554936541273515 5.554936541273515 5.898277345296068 5.554936541273515 5.8239406657140345 5.554936541273515 5.983376253310308 5.554936541273515 5.858181648000677 5.669856476590303 5.669856476590303 
3.8910572554413694 3.8910572554413694 3.8910572554413694 3.8910572554413694 3.8910572554413694 3.8910572554413694 3.8910572554413694 3.8910572554413694 3.8910572554413694 3.8910572554413694 5.704412110022044 5.971182134787151 5.355496047680379 5.950259486936487 5.77423035654509 5.993948537920202 5.518230642987344 5.518230642987344 5.518230642987344 5.490201641253791 5.254480139396451 5.49334507015011 5.604049607403136 5.556226056542798 5.4870401802932705 5.378730582278126 5.188423976536414 4.796536964863708 3.9089760425617937 0.8615384615384616 0.8615384615384616 0.8615384615384616 0.8615384615384616 4.169317698425355 4.846206003670598 5.136300991632843 5.297464873834092 5.400023707962159 5.471025977743128 5.523094308915839 5.5629112680479125 5.59434570946797 5.681420654107063 5.552339821798453 5.552339821798453 5.799609062429935 5.569934906022157 5.891089441298566 5.719156668809746 5.522580647562302 5.7776423253700075 5.7776423253700075 5.9723230024643605 5.554936541273515 5.554936541273515 5.554936541273515 5.554936541273515 5.554936541273515 5.554936541273515 5.554936541273515 5.554936541273515 5.554936541273515 5.862724805891139 5.737124056290839 5.749803945646527 
3.8910572554413694 3.8910572554413694 3.8910572554413694 3.8910572554413694 3.8910572554413694 3.8910572554413694 3.8910572554413694 3.8910572554413694 3.8910572554413694 3.8910572554413694 5.82093043762464 5.769269281450927 5.157581146770036 5.525967938898815 5.939328982974305 5.15097414050508 5.723121667693605 5.830485869149028 5.519588202985245 5.527909839313649 5.254480139396451 5.02936156312642 5.314541028555828 5.554662302088777 5.496332333787724 5.413061053129546 5.29132736644463 5.1209163762482275 4.83082138828598 4.153933083040738 0.8461538461538461 0.8461538461538461 0.8461538461538461 0.8461538461538461 3.893591427177188 4.742531609340949 5.076962590193342 5.255844277626017 5.367223441499193 5.443244140650725 5.498437250993618 5.540330816675573 5.573215013393667 5.552339821798453 5.578656919673824 5.569934906022157 5.569934906022157 5.7616943000263685 5.54154238120723 5.522580647562302 5.871083328781171 5.7776423253700075 5.7776423253700075 5.960122945729624 5.554936541273515 5.913525851646802 5.554936541273515 5.933234128777295 5.908978502962089 5.974367228037461 5.554936541273515 5.654993929638012 5.999640394903407 5.708421827198801 5.708421827198801 
3.8910572554413694 3.8910572554413694 3.8910572554413694 3.8910572554413694 3.8910572554413694 3.8910572554413694 3.8910572554413694 3.8910572554413694 3.8910572554413694 3.8910572554413694 3.8910572554413694 3.978140941079224 3.9159691042101663 3.8910572554413694 3.8910572554413694 3.8910572554413694 3.8910572554413694 3.8910572554413694 3.9413403330349084 3.713742752762286 3.5328426750648125 3.830868788656212 3.804806605273903 3.5592870526278135 3.514072631632068 3.45627094952404 3.385447977318412 3.290698774456536 3.1447337862639158 2.890646584595282 2.337633263316487 0.20458188124113486 0.8307692307692307 0.8307692307692307 0.8307692307692307 3.523195462887717 4.622040114259867 5.0119527324886946 5.211664073532727 5.333057241618316 5.414649370987319 5.473257801942517 5.517395015377914 5.552339821798453 5.666751474594099 5.708686992449447 5.649159231616807 5.648314083901529 5.648314083901529 5.522580647562302 5.522580647562302 5.884878859309717 5.996732240254117 5.712278871829395 5.554936541273515 5.90535731391152 5.977755459572178 5.524860078086833 5.790931856757379 5.776815088787545 5.554936541273515 5.903371782381737 5.708421827198801 5.708421827198801 5.708421827198801 
3.8910572554413694 3.8910572554413694 3.8910572554413694 3.8910572554413694 3.8910572554413694 3.8910572554413694 3.8910572554413694 3.8910572554413694 3.8910572554413694 3.8910572554413694 3.8910572554413694 3.8910572554413694 3.8910572554413694 3.8910572554413694 3.8910572554413694 3.8910572554413694 3.8910572554413694 3.8910572554413694 3.6150532082192273 3.5328426750648125 3.5328426750648125 3.5328426750648125 3.5328426750648125 3.5328426750648125 3.5328426750648125 3.49407848439638 3.447510536446983 3.3851589976439946 3.297357851166317 3.1645304757257273 2.940098013774387 2.479420855032161 0.9950166768627628 0.8153846153846154 0.8153846153846154 0.8153846153846154 2.99501667686277 4.479420855032163 4.940098013774388 5.164530475725727 5.297357851166317 5.385158997643995 5.447982893070871 5.500088302837383 5.542890440086908 5.775643341372848 5.519474854269784 5.79932050022879 5.727255676476823 5.522580647562302 5.870394623844662 5.658036307920408 5.59296798859024 5.59296798859024 5.771903054385093 5.694512682355712 5.766581562440325 5.524860078086833 5.999316086350297 5.7097555765530545 5.889033232661343 5.708421827198801 5.708421827198801 5.708421827198801 5.851959863811209 
3.8910572554413694 3.8910572554413694 3.8910572554413694 3.8910572554413694 3.8910572554413694 3.8910572554413694 3.8910572554413694 3.8910572554413694 3.8910572554413694 3.8910572554413694 5.408216142495301 5.778739187088074 5.570016229942952 5.812242597855182 5.604969189387346 5.195601133561762 5.05256572482834 5.5346493051685375 5.109535785110535 5.578810724234414 5.79413265796876 5.8617301283936465 5.292739652557213 5.082584048266252 5.548742423364072 5.521062511574762 5.486625784608683 5.442488571173286 5.383880140218087 5.302288010849085 5.180894842763497 4.981183501719463 4.591270883490635 3.4924262321184796 0.8 0.8 0.8 2.1738126504719157 4.306864032547259 4.85987735382605 5.113964555494685 5.26020438095069 5.366666666666666 5.445922438043152 5.5036255108180905 5.5464108477417176 5.519474854269784 5.655780699791527 5.522580647562302 5.522580647562302 5.819963748129316 5.59296798859024 5.59296798859024 5.59296798859024 5.59296798859024 5.694512682355712 5.980434928262289 5.524860078086833 5.772695200934943 5.7097555765530545 5.7097555765530545 5.7097555765530545 5.9520005815174954 5.708421827198801 5.708421827198801 
3.8910572554413694 3.8910572554413694 3.8910572554413694 3.8910572554413694 3.8910572554413694 3.8910572554413694 3.8910572554413694 3.8910572554413694 3.8910572554413694 3.8910572554413694 5.059318796678015 5.436677660468783 5.515332499061973 5.515332499061973 5.515332499061973 5.815893030728144 5.05256572482834 5.662322831010735 5.6550616482136435 5.5712208868114015 5.9421956166726435 5.971361697668461 5.6272886477208015 5.73636339362983 5.531847624453912 5.810045946420826 5.5116765518552056 5.478792355137112 5.436898789455157 5.3817056791122635 5.3056849799607315 5.194305816087556 5.01542412865488 4.680993147802487 3.832052965638722 0.7846153846153846 0.7846153846153846 0.7846153846153846 0.7846153846153846 4.092394621502276 4.76928292674752 5.095616762611251 5.2846153846153845 5.396857893538654 5.469319072068152 5.519474854269784 5.519474854269784 5.522580647562302 5.522580647562302 5.522580647562302 5.522580647562302 5.872804865944164 5.823273030224591 5.987060157961038 5.517566162940008 5.517566162940008 5.517566162940008 5.517566162940008 5.654218443292953 5.853437376713594 5.758183296481334 5.98924309070964 5.904157240417918 5.708421827198801 5.953693783775841 
3.8910572554413694 3.8910572554413694 3.8910572554413694 3.8910572554413694 3.8910572554413694 3.8910572554413694 3.8910572554413694 3.8910572554413694 3.8910572554413694 3.8910572554413694 5.545490688313651 5.0618471018771105 5.633126269970736 5.614146610778575 5.787896689023643 5.364719483514849 5.335652661390813 5.818790194176541 5.5712208868114015 5.5712208868114015 5.607186473225593 5.458762796532234 5.458762796532234 5.768982590737885 5.4699532031129685 5.4699532031129685 5.4699532031129685 5.500279552746699 5.4706035757402205 5.430786616608148 5.378718285435436 5.307716015654467 5.205157181526399 5.043993299325151 4.753898311362904 4.077010006117661 0.7692307692307692 0.7692307692307692 0.7692307692307692 0.7692307692307692 4.192749206494606 4.963004994400915 5.229435150181459 5.363771909222096 5.4446362590954696 5.498632228601591 5.997371054662853 5.802763981753529 5.979689600355824 5.87910210056907 5.661998188217281 5.722080761430603 5.517566162940008 5.517566162940008 5.517566162940008 5.517566162940008 5.517566162940008 5.8405201131509275 5.654218443292953 5.804609603165844 5.710080196517591 5.924989739928169 5.733977918130668 5.708421827198801 5.708421827198801 
3.8910572554413694 3.8910572554413694 3.8910572554413694 3.8910572554413694 3.8910572554413694 3.8910572554413694 3.8910572554413694 3.8910572554413694 3.8910572554413694 3.8910572554413694 5.0618471018771105 5.0618471018771105 5.0618471018771105 5.377655470605421 5.5504967172268085 5.992210587160422 5.959440821043969 5.5712208868114015 5.5712208868114015 5.648087892452633 5.5852977045712455 5.807207656925853 5.458762796532234 5.458762796532234 5.71784325468333 5.494011927751375 5.4699532031129685 5.4409845346708074 5.405432077946336 5.3607636066771285 5.302957349740507 5.225217900756775 5.1150870146964875 4.9469925043939424 4.65883048673244 4.05048844944704 1.921291318948131 0.7538461538461538 0.7538461538461538 0.7538461538461538 4.128846153846156 4.941346153846155 5.212179487179487 5.347596153846154 5.428846153846154 5.483012820512821 5.463076923076923 5.776536907988695 5.8364472001881955 5.517566162940008 5.517566162940008 5.566485779702667 5.695284928639926 5.517566162940008 5.517566162940008 5.734701097679102 5.517566162940008 5.699572177423019 5.854051995560576 5.710080196517591 5.710080196517591 5.83766782506871 5.632904194208246 5.708421827198801 5.708421827198801 
3.8910572554413694 3.8910572554413694 3.8910572554413694 3.8910572554413694 3.8910572554413694 3.8910572554413694 3.8910572554413694 3.8910572554413694 3.8910572554413694 3.8910572554413694 5.812587816490291 5.1596206306127765 5.392936031527891 5.861145675028599 5.884291812015488 5.5712208868114015 5.5712208868114015 5.5712208868114015 5.5712208868114015 5.5712208868114015 5.5712208868114015 5.738560454592223 5.458762796532234 5.487146467320686 5.46470762168311 5.437869002391108 5.405195900644322 5.3645537496910025 5.312622112361761 5.243938333958571 5.148837717708001 5.008451093719063 4.780322829737038 4.344805234862264 3.1834249818628724 0.7384615384615385 0.7384615384615385 0.7384615384615385 0.7384615384615385 3.1834249818628817 4.4384615384615405 4.977694081686691 5.21296768421615 5.339169712519471 5.4170572237793415 5.4697196135182535 5.463076923076923 5.733201670551782 5.724269716544782 5.775198391167875 5.517566162940008 5.904139001127853 5.985838285633844 5.517566162940008 5.543203133231948 5.602982097027314 5.517566162940008 5.517566162940008 5.841326524283297 5.710080196517591 5.710080196517591 5.546621849648857 5.546621849648857 5.546621849648857 5.734217133896518 
3.8910572554413694 3.8910572554413694 3.8910572554413694 3.8910572554413694 3.8910572554413694 3.8910572554413694 3.8910572554413694 3.8910572554413694 3.8910572554413694 3.8910572554413694 5.875223148008713 5.737802880646022 5.392936031527891 5.490398005999809 5.490398005999809 5.892188143923137 5.673160337567268 5.5712208868114015 5.812241871051298 5.5712208868114015 5.900591331378561 5.577820159198783 5.458762796532234 5.433827501575188 5.40369735350209 5.366560194249202 5.319650098350818 5.258524821877166 5.175569089520066 5.056545647442489 4.871398070877368 4.543829281569846 3.806799505627919 0.7230769230769231 0.7230769230769231 0.7230769230769231 0.7230769230769231 1.8905220881789466 4.019719218677818 4.62806125596321 4.9162232736247145 5.111608358627586 5.255196685090271 5.35088800577291 5.416322957257967 5.463076923076923 5.463076923076923 5.783799399096267 5.724269716544782 5.633514348140404 5.517566162940008 5.517566162940008 5.740545760240263 5.575105479740215 5.684813012606764 5.902368151722722 5.517566162940008 5.517566162940008 5.51767273662377 5.798106987496523 5.546621849648857 5.546621849648857 5.546621849648857 5.546621849648857 5.9891938901877095 
3.8910572554413694 3.8910572554413694 3.8910572554413694 3.8910572554413694 3.8910572554413694 3.8910572554413694 3.8910572554413694 3.8910572554413694 3.8910572554413694 3.8910572554413694 5.95442017667108 5.734864109666773 5.861610161903751 5.490398005999809 5.696981599396663 5.941430138907945 5.9073578150725155 5.952224073664674 5.438686844421016 5.5712208868114015 5.422931873233106 5.433567320377178 5.40136444843523 5.367020766812486 5.324436824202508 5.269686040846823 5.196684996372575 5.094483534108629 4.941181340712708 4.685677685052842 4.174670373733109 2.641648439773904 0.7076923076923076 0.7076923076923076 0.7076923076923076 0.7076923076923076 3.5176609734648885 4.430174029392979 4.805914699481017 5.010864155892673 5.139906406225939 5.229802803331333 5.3084004817502395 5.372925275986315 5.422922137372398 5.755529741162429 5.517566162940008 5.751107498562476 5.633514348140404 5.633514348140404 5.634580013412646 5.517566162940008 5.517566162940008 5.7129131100949655 5.517566162940008 5.517566162940008 5.517566162940008 5.6236482459712684 5.7350804956462405 5.545819682205744 5.984757150959967 5.546621849648857 5.546621849648857 5.659765331857452 5.794655185578491 
3.8910572554413694 3.8910572554413694 3.8910572554413694 3.8910572554413694 3.8910572554413694 3.8910572554413694 3.8910572554413694 3.8910572554413694 3.8910572554413694 3.8910572554413694 5.181169717704196 5.734864109666773 5.490398005999809 5.490398005999809 5.918645771895294 5.576346302213746 5.576346302213746 5.921406669202143 5.438686844421016 5.470914435520665 5.422931873233106 5.381814277132612 5.332443946274819 5.277977439886287 5.213238337945443 5.124521790841323 4.9954795405080565 4.790530084096399 4.41478941400836 3.5022763580802696 0.6923076923076923 0.6923076923076923 0.6923076923076923 0.6923076923076923 2.6262638243893113 4.159285758348495 4.6702930696682285 4.9257967253280945 5.079098918724013 5.18130038098796 5.254301425462208 5.309052208817893 5.3539312082157124 5.395933203125783 5.432307692307693 5.650722322151925 5.517566162940008 5.517566162940008 5.864708531618162 5.633514348140404 5.900017386023613 5.612511827558789 5.517566162940008 5.517566162940008 5.517566162940008 5.841022428664136 5.960378897552967 5.54498409277441 5.525095225811647 5.525095225811647 5.771845730482558 5.546621849648857 5.546621849648857 5.546621849648857 5.546621849648857 
3.8910572554413694 3.8910572554413694 3.8910572554413694 3.8910572554413694 3.8910572554413694 3.8910572554413694 3.8910572554413694 3.8910572554413694 3.8910572554413694 3.8910572554413694 5.276809394805893 5.636458044598818 5.8368860682679085 5.82204409705318 5.484281822910687 5.802982317051473 5.576346302213746 5.989602727076414 5.425100452549608 5.425100452549608 5.383357888007933 5.327607087237779 5.252231588672957 5.153562783474569 5.038163937773411 4.870069427470868 4.5819074098093635 3.973565372523965 1.8443682420250613 0.676923076923077 0.676923076923077 0.676923076923077 0.676923076923077 3.7606456594740814 4.497675435416004 4.825244224723522 5.010391801288644 5.129415243366221 5.21237097572332 5.273496252196972 5.320406348095356 5.357543507348244 5.387676873254587 5.415242930198823 5.824099993004017 5.809695086532656 5.517566162940008 5.517566162940008 5.767271746662139 5.87591920877057 5.822396895804112 5.517566162940008 5.517566162940008 5.636036945533063 5.61587527960376 5.525095225811647 5.875673516826121 5.93990691337996 5.525095225811647 5.676311197274459 5.546621849648857 5.546621849648857 5.546621849648857 5.546621849648857 5.546621849648857 
3.8910572554413694 3.8910572554413694 3.8910572554413694 3.8910572554413694 3.8910572554413694 3.8910572554413694 3.8910572554413694 3.8910572554413694 3.8910572554413694 3.8910572554413694 5.9994352384442395 5.837596110547871 5.484281822910687 5.484281822910687 5.484281822910687 5.840663673660232 5.576346302213746 5.576346302213746 5.574701772321575 5.397548458603721 5.34817170887723 5.27735328057086 5.169128349137391 4.992004398126475 4.70575945281651 4.26788215793919 3.106501904939791 0.6615384615384615 0.6615384615384615 0.6615384615384615 0.6615384615384615 3.1065019049398 4.267882157939193 4.703399752813964 4.931528016795987 5.071914640784924 5.167015257035495 5.235699035438684 5.287630672767926 5.328272823721245 5.360945925468031 5.387784544760033 5.41022339039761 5.844450325881848 5.517566162940008 5.768418813549324 5.517566162940008 5.517566162940008 5.9489696987664455 5.802618614624462 5.517566162940008 5.517566162940008 5.930554024812828 5.525095225811647 5.525095225811647 5.525095225811647 5.525095225811647 5.525095225811647 5.525095225811647 5.525095225811647 5.898439612564285 5.976773743851329 5.546621849648857 5.665480191624306 5.546621849648857 
3.8910572554413694 3.8910572554413694 3.8910572554413694 3.8910572554413694 3.8910572554413694 3.8910572554413694 3.8910572554413694 3.8910572554413694 3.8910572554413694 3.8910572554413694 5.618577404989964 5.484281822910687 5.484281822910687 5.846986739462325 5.484281822910687 5.780699682644516 5.813722887171972 5.5693400476017905 5.990699687566511 5.375847939481398 5.322064070440098 5.24167744181726 5.108669996267277 4.847570194269709 4.124618932604143 0.6461538461538461 0.6461538461538461 0.6461538461538461 0.6461538461538461 1.8135990112558802 3.9427961417547386 4.551138179040135 4.839300196701638 5.007394707004181 5.117525593064468 5.1952650420482005 5.253071298984821 5.297739770254029 5.3332922269785 5.362260895420662 5.3863196200590675 5.576751714412087 5.988765761500678 5.517566162940008 5.517566162940008 5.671783515468124 5.591229997345279 5.517566162940008 5.517566162940008 5.517566162940008 5.517566162940008 5.517566162940008 5.517566162940008 5.738794034428002 5.936686764045419 5.525095225811647 5.665814442448493 5.525095225811647 5.898475315047272 5.535285830407265 5.546621849648857 5.546621849648857 5.546621849648857 5.864304479697312 5.79294418286338 
3.8910572554413694 3.8910572554413694 3.8910572554413694 3.8910572554413694 3.8910572554413694 3.8910572554413694 3.8910572554413694 3.8910572554413694 3.8910572554413694 3.8910572554413694 5.526443114916698 5.484281822910687 5.484281822910687 5.484281822910687 5.584939987839029 5.847577408081782 5.598539538952506 5.359935897435898 5.359935897435898 5.359935897435898 5.305769230769231 5.22451923076923 5.089102564102564 4.81826923076923 4.005769230769225 0.6307692307692307 0.6307692307692307 0.6307692307692307 3.4407378965418154 4.353250952469903 4.728991622557938 4.933941078969596 5.062983329302861 5.1516998764069815 5.216438978347826 5.265764008397992 5.304594351203445 5.3359573203924615 5.361818014285161 5.591063278150062 5.933212937238773 5.576751714412087 5.576751714412087 5.914459635952764 5.517566162940008 5.517566162940008 5.517566162940008 5.517566162940008 5.74072383907365 5.517566162940008 5.888965008489166 5.878239039182887 5.517566162940008 5.654459447617846 5.764802149277962 5.630895248625722 5.712523157134928 5.525095225811647 5.525095225811647 5.525095225811647 5.525095225811647 5.693658144199306 5.947494877430588 5.581718383267126 5.525095225811647 
3.8910572554413694 3.8910572554413694 3.8910572554413694 3.8910572554413694 3.8910572554413694 3.8910572554413694 3.8910572554413694 3.8910572554413694 3.8910572554413694 3.8910572554413694 5.703545060457882 5.642612945868106 5.986077630793919 5.4192660631829215 5.4192660631829215 5.4192660631829215 5.4192660631829215 5.4192660631829215 5.907866267157704 5.346008796310029 5.292894305452673 5.21400472667323 5.08452379049675 4.831732921502528 4.119322290700628 0.6153846153846154 0.6153846153846154 3.3915081868003196 4.593369992745153 4.848873648405018 5.002175841800936 5.104377304064883 5.17737834853913 5.2321291318948155 5.274713074504794 5.308780228592775 5.336653354664761 5.359880959724749 5.359880959724749 5.626068768489569 5.541309408013951 5.681815802638015 5.726733407235152 5.883035438318318 5.868551836843845 5.723052547603782 5.517566162940008 5.517566162940008 5.517566162940008 5.874477367071742 5.595902620614099 5.595902620614099 5.774205324557363 5.525095225811647 5.525095225811647 5.525095225811647 5.778254272421879 5.525095225811647 5.525095225811647 5.525095225811647 5.525095225811647 5.525095225811647 5.928545740669041 5.525095225811647 5.525095225811647 
3.8910572554413694 3.8910572554413694 3.8910572554413694 3.8910572554413694 3.8910572554413694 3.8910572554413694 3.8910572554413694 3.8910572554413694 3.8910572554413694 3.8910572554413694 5.176803922074932 5.833663236548707 5.691506828092213 5.741455103855676 5.735243638492511 5.535592161523464 5.844551331388542 5.788404137149647 5.742545485036259 5.3371136490171915 5.287135255294224 5.213692826959535 5.095193694125036 4.871828072056467 4.293913843529852 0.6 0.6 2.7626404187027958 4.558437622055456 4.962143970095977 5.135447898800242 5.196573175273895 5.24348327117228 5.2806204304251665 5.310750578498264 5.3356858734553105 5.3356858734553105 5.5417848719659135 5.472486944159766 5.4702416308843835 5.541309408013951 5.517566162940008 5.517566162940008 5.517566162940008 5.517566162940008 5.517566162940008 5.517566162940008 5.805671538098473 5.517566162940008 5.517566162940008 5.517566162940008 5.923118247774188 5.998390550404857 5.664471776906898 5.758184118585873 5.525095225811647 5.979929195923322 5.525095225811647 5.583597922186301 5.525095225811647 5.525095225811647 5.525095225811647 5.525095225811647 5.525095225811647 5.542929699149506 
3.8910572554413694 3.8910572554413694 3.8910572554413694 3.8910572554413694 3.8910572554413694 3.8910572554413694 3.8910572554413694 3.8910572554413694 3.8910572554413694 3.8910572554413694 5.851187222719007 5.691506828092213 5.691506828092213 5.691506828092213 5.691506828092213 5.750449471583265 5.813355528059892 5.969486281998904 5.332118285578434 5.328280718392272 5.280986499531919 5.212292181639732 5.10342574802112 4.9045870552135735 4.425693865493987 1.666356915204955 0.5846153846153845 1.6663569152049604 4.425693865493991 4.904587055213574 5.103425748021121 5.212292181639732 5.280986499531919 5.310861467836956 5.333300313474532 5.892293821320071 5.3356858734553105 5.3356858734553105 5.3356858734553105 5.415600696142051 5.6139291241261935 5.517566162940008 5.794270145578096 5.517566162940008 5.670114516302549 5.8419237693384485 5.573666301505874 5.517566162940008 5.947708572166568 5.517566162940008 5.642371319485215 5.642371319485215 5.706961888843752 5.525095225811647 5.525095225811647 5.525095225811647 5.670560524571976 5.525095225811647 5.525095225811647 5.660685632660069 5.525095225811647 5.80294395326245 5.6601717152798745 5.511597289418657 5.511597289418657 
3.8910572554413694 3.8910572554413694 3.8910572554413694 3.8910572554413694 3.8910572554413694 3.8910572554413694 3.8910572554413694 3.8910572554413694 3.8910572554413694 3.8910572554413694 5.288889335553188 5.691506828092213 5.691506828092213 5.691506828092213 5.691506828092213 5.691506828092213 5.85806024524963 5.402715308550719 5.402715308550719 5.319129164800316 5.274308088737511 5.209914490376537 5.1095468147189305 4.931374739326745 4.5276683912862214 2.731871187933562 0.5692307692307692 0.5692307692307692 4.263144612760627 4.841058841287238 5.064424463355805 5.182923596190304 5.2563660245249935 5.306344418247961 5.519398682811776 5.795865944447637 5.3356858734553105 5.6715553753361805 5.6505033095081405 5.415600696142051 5.801084573913392 5.517566162940008 5.517566162940008 5.517566162940008 5.517566162940008 5.517566162940008 5.517566162940008 5.517566162940008 5.517566162940008 5.747872584643504 5.617781477165401 5.910746239058273 5.907001203723976 5.864927074210499 5.589124372543572 5.525095225811647 5.575037201282061 5.525095225811647 5.525095225811647 5.525095225811647 5.53832626889888 5.7187264454286835 5.736444214584875 5.511597289418657 5.885281077469432 
3.8910572554413694 3.8910572554413694 3.8910572554413694 3.8910572554413694 3.8910572554413694 3.8910572554413694 3.8910572554413694 3.8910572554413694 3.8910572554413694 3.8910572554413694 5.873604433988253 5.665345903066582 5.702296889445064 5.691506828092213 5.691506828092213 5.7657785395414045 5.741685550357781 5.81022567480924 5.259534664367915 5.951070110923981 5.267144314621 5.206658694531305 5.113827823056747 4.95323719138178 4.608059626747083 3.329969725261856 0.5538461538461539 0.5538461538461539 4.057783829162174 4.770194459964069 5.022985328958288 5.152463578930939 5.231166044600589 5.284064423165436 5.376876821756236 5.855259088069664 5.427847763506355 5.774400659687571 5.735199414140005 5.4879028121264595 5.4879028121264595 5.6320306592883025 5.517566162940008 5.517566162940008 5.878879550762457 5.811425141410227 5.862880298384717 5.940427369000029 5.798936680646004 5.4669448029102155 5.582478716167967 5.617272622514829 5.617272622514829 5.7249465590277 5.802484240622578 5.525095225811647 5.525095225811647 5.681401002175738 5.991531015957748 5.525095225811647 5.525095225811647 5.63743048810179 5.511597289418657 5.511597289418657 5.511597289418657 
3.8910572554413694 3.8910572554413694 3.8910572554413694 3.8910572554413694 3.8910572554413694 3.8910572554413694 3.8910572554413694 3.8910572554413694 3.8910572554413694 3.8910572554413694 5.878237951917426 5.665345903066582 5.665345903066582 5.78223293413322 5.783059783119906 5.741685550357781 5.741685550357781 5.716462789660094 5.259534664367915 5.259534664367915 5.259534664367915 5.202610812512073 5.1164952417558 4.9709896222020955 4.6723201925918625 3.709940919403337 0.5384615384615384 0.5384615384615384 3.7877503074483707 4.690178777042787 4.978710328545763 5.120779163549766 5.205330251588586 5.261412959816356 5.785936619276102 5.694675802664223 5.906140934315487 5.654480839411488 5.654480839411488 5.4879028121264595 5.66994790845245 5.522857611274619 5.719581223043745 5.6150105376423 5.910764644390195 5.7453312371750345 5.728899531155088 5.728899531155088 5.739340176535367 5.4669448029102155 5.4774585453218645 5.655875984470795 5.617272622514829 5.617272622514829 5.912099352205119 5.809743560143792 5.525095225811647 5.525095225811647 5.525095225811647 5.525095225811647 5.998108125950457 5.796495535461789 5.511597289418657 5.957231764384513 5.705140074378077 
3.8910572554413694 3.8910572554413694 3.8910572554413694 3.8910572554413694 3.8910572554413694 3.8910572554413694 3.8910572554413694 3.8910572554413694 3.8910572554413694 3.8910572554413694 5.665345903066582 5.665345903066582 5.665345903066582 5.7451223785170304 5.6055372833628585 5.831419207735082 5.741685550357781 5.748610882829707 5.963583348476941 5.5238722862353145 5.251514454899962 5.197845982928231 5.1177398400344645 4.985276741000981 4.724208691449552 3.970559416329394 0.523076923076923 0.523076923076923 3.4132454395482346 4.598544025800306 4.931109816187577 5.087714870920208 5.178794798149647 5.238359179624954 5.760686018786776 5.694675802664223 5.816544320093239 5.88498895065472 5.961017955536251 5.655655715980111 5.531817452368713 5.522857611274619 5.522857611274619 5.951633470029884 5.711937324635871 5.4669448029102155 5.783979252761362 5.4669448029102155 5.4669448029102155 5.4669448029102155 5.560637553558179 5.560637553558179 5.746663712895993 5.753227340028005 5.555022755630264 5.555022755630264 5.604472378415201 5.525095225811647 5.9798241426979635 5.525095225811647 5.890281741033471 5.7752388615689485 5.511597289418657 5.878404133825402 5.8406355041984925 
3.8910572554413694 3.8910572554413694 3.8910572554413694 3.8910572554413694 3.8910572554413694 3.8910572554413694 3.8910572554413694 3.8910572554413694 3.8910572554413694 3.8910572554413694 5.727331526538579 5.801608104423273 5.977143007423633 5.881944859047884 5.6055372833628585 5.9756729652585 5.851866837446357 5.249226972242522 5.249226972242522 5.243115369243371 5.243115369243371 5.192430131992618 5.11772345528653 4.996615116030077 4.766400164830873 4.158783654288717 0.5076923076923077 0.5076923076923077 2.8533881832529904 4.491847519326642 4.8795745377868185 5.053087733893308 5.1514869922913595 5.214868721010389 5.730344599629383 5.448901943509597 5.986584047285021 5.65226152795154 5.65226152795154 5.65226152795154 5.65226152795154 5.522857611274619 5.522857611274619 5.4669448029102155 5.4669448029102155 5.4669448029102155 5.4669448029102155 5.4669448029102155 5.634776240661048 5.4669448029102155 5.4669448029102155 5.686585488497052 5.486765681650277 5.737241231464135 5.555022755630264 5.56309534882515 5.525095225811647 5.525095225811647 5.895574256814124 5.525095225811647 5.826419959776574 5.511597289418657 5.511597289418657 5.521713439366602 5.521713439366602 
3.8910572554413694 3.8910572554413694 3.8910572554413694 3.8910572554413694 3.8910572554413694 3.8910572554413694 3.8910572554413694 3.8910572554413694 3.8910572554413694 3.8910572554413694 5.006173796247419 5.788454059830331 5.67009001858245 5.6055372833628585 5.6055372833628585 5.724489636613535 5.4946065584372406 5.4946065584372406 5.577371582054206 5.908389814696357 5.234365912189764 5.186421343394611 5.116584277432719 5.005423503801071 4.80085031535291 4.299794245095822 1.1616009629593131 0.49230769230769234 1.9147673506720917 4.365137447682776 4.823336734115667 5.016680941685617 5.123323710883391 5.190903194660736 5.237560237640142 5.448901943509597 5.941775430052982 5.770045695350837 5.958992162699623 5.978398521997678 5.577138638340045 5.7374023609482805 5.4669448029102155 5.4669448029102155 5.637499751882219 5.560321234074159 5.938237650602302 5.993799614375281 5.634776240661048 5.659621841284171 5.4669448029102155 5.706940224387386 5.486765681650277 5.486765681650277 5.555022755630264 5.525095225811647 5.525095225811647 5.525095225811647 5.759894449573731 5.525095225811647 5.776665461945081 5.770756532177257 5.511597289418657 5.511597289418657 5.774512294576963 
3.8910572554413694 3.8910572554413694 3.8910572554413694 3.8910572554413694 3.8910572554413694 3.8910572554413694 3.8910572554413694 3.8910572554413694 3.8910572554413694 3.8910572554413694 5.1943976309836515 5.901204390341881 5.67009001858245 5.806387463825657 5.6055372833628585 5.749759025748343 5.909515051495565 5.4946065584372406 5.4946065584372406 5.991957469777471 5.225291799071031 5.179870990794488 5.114441015876297 5.012044953433704 4.82902207017017 4.408307130720233 2.4293887118260726 0.4769230769230769 0.4769230769230769 4.211024186805864 4.761415008595955 4.97823563536175 5.094209458980663 5.166419575573571 5.215705845629048 5.484445639235697 5.484445639235697 5.63769056070589 5.626990252889637 5.626990252889637 5.4669448029102155 5.4669448029102155 5.4669448029102155 5.4669448029102155 5.4669448029102155 5.4669448029102155 5.4669448029102155 5.768275646972452 5.725830862091432 5.4669448029102155 5.4669448029102155 5.664917707035795 5.486765681650277 5.669281126767071 5.69787453201386 5.993957103604417 5.58095491325054 5.972577250110418 5.759894449573731 5.90010086333628 5.511597289418657 5.511597289418657 5.511597289418657 5.511597289418657 5.511597289418657 
3.8910572554413694 3.8910572554413694 3.8910572554413694 3.8910572554413694 3.8910572554413694 3.8910572554413694 3.8910572554413694 3.8910572554413694 3.8910572554413694 3.8910572554413694 5.075557225448344 5.137272118688542 5.901299911124502 5.826327036338833 5.6055372833628585 5.6055372833628585 5.6055372833628585 5.4946065584372406 5.716163950265751 5.791402858859745 5.675460064767058 5.172824679581904 5.111396215335827 5.016763175821602 4.85203158851906 4.493498133801767 3.1105833798921987 0.46153846153846156 0.46153846153846156 4.017969551755675 4.692534462869125 4.937440194929423 5.064033979134505 5.141369481547726 5.193514266562504 5.193514266562504 5.702285890932116 5.4669448029102155 5.980112968772122 5.4669448029102155 5.4669448029102155 5.6211807803891904 5.617887021076214 5.757027984101507 5.4669448029102155 5.963443763149756 5.4669448029102155 5.4669448029102155 5.4669448029102155 5.4669448029102155 5.4669448029102155 5.486765681650277 5.486765681650277 5.784134466952868 5.69787453201386 5.69787453201386 5.854986324166644 5.64504485494337 5.922707824565492 5.511597289418657 5.511597289418657 5.544392386920681 5.511597289418657 5.511597289418657 5.511597289418657 
3.8910572554413694 3.8910572554413694 3.8910572554413694 3.8910572554413694 3.8910572554413694 3.8910572554413694 3.8910572554413694 3.8910572554413694 3.8910572554413694 3.8910572554413694 5.8299058492229365 5.617537310125192 5.389457035815857 5.971560491778998 5.746202836291768 5.9593806727558665 5.6055372833628585 5.778008749513654 5.372137486670445 5.568300003178471 5.171651843993235 5.165323034353099 5.107538916698624 5.019814841710224 4.870745259736929 4.561385804674072 3.5325857564417733 0.4461538461538461 0.4461538461538461 3.7669002164065235 4.6150081102183 4.8939160752973425 5.032669284055259 5.115698312589111 5.170958435258799 5.343021696248199 5.922241231995218 5.4669448029102155 5.624346259463607 5.4669448029102155 5.4669448029102155 5.4669448029102155 5.5257709205818095 5.5257709205818095 5.538836295874843 5.4669448029102155 5.4669448029102155 5.4669448029102155 5.4669448029102155 5.4669448029102155 5.4669448029102155 5.7064758284767665 5.486765681650277 5.486765681650277 5.896183169490859 5.81147331308306 5.511597289418657 5.5668463125427 5.983333176011157 5.511597289418657 5.511597289418657 5.511597289418657 5.511597289418657 5.946334054677239 5.511597289418657 
3.8910572554413694 3.8910572554413694 3.8910572554413694 3.8910572554413694 3.8910572554413694 3.8910572554413694 3.8910572554413694 3.8910572554413694 3.8910572554413694 3.8910572554413694 5.616226392388816 5.389457035815857 5.389457035815857 5.389457035815857 5.7022924183505825 5.625895946119518 5.625895946119518 5.716364982274609 5.372137486670445 5.157402360810364 5.157402360810364 5.157402360810364 5.102946809025728 5.02139894292038 4.88584586747374 4.616081826238349 3.817368684541405 0.4307692307692308 0.4307692307692308 3.4238563561931628 4.526555737828362 4.847198820431507 4.999965943556566 5.089344218911891 5.148008310296314 5.249839662042801 5.820364143015315 5.4669448029102155 5.4669448029102155 5.776917142232979 5.4669448029102155 5.721777448483418 5.5257709205818095 5.919513541247541 5.5829424824085 5.7908041889557476 5.4669448029102155 5.805747869179848 5.4669448029102155 5.768128374189224 5.812853776719343 5.622235974676184 5.80775499513063 5.781811688858827 5.511597289418657 5.511597289418657 5.511597289418657 5.511597289418657 5.511597289418657 5.7721522993338725 5.511597289418657 5.9653674429173025 5.671384487589909 5.511597289418657 5.511597289418657 
3.8910572554413694 3.8910572554413694 3.8910572554413694 3.8910572554413694 3.8910572554413694 3.8910572554413694 3.8910572554413694 3.8910572554413694 3.8910572554413694 3.8910572554413694 5.253421350678856 5.379019622191086 5.603239720380621 5.389457035815857 5.966330275580325 5.90158010262756 5.907172372104478 5.894115272258766 5.794297018357767 5.157402360810364 5.972688955899912 5.149095204842159 5.097687982729716 5.021684003625673 4.897878779802105 4.660490781828478 4.020750244916496 0.41538461538461535 0.41538461538461535 2.9219474075779903 4.42401801469041 4.796712225477705 4.965748397583419 5.062236856339041 5.124630453343559 5.8381524179304884 5.708705795260974 5.4669448029102155 5.982622699799668 5.4669448029102155 5.4669448029102155 5.6350307041578125 5.7940256235551715 5.8735512558513125 5.513835320345801 5.4669448029102155 5.4669448029102155 5.753931721715325 5.4669448029102155 5.477542711457252 5.477542711457252 5.622235974676184 5.55537976123009 5.511597289418657 5.511597289418657 5.989518814048828 5.511597289418657 5.511597289418657 5.511597289418657 5.511597289418657 5.511597289418657 5.511597289418657 5.749684125423846 5.726578667909201 5.996985373807033 
3.8910572554413694 3.8910572554413694 3.8910572554413694 3.8910572554413694 3.8910572554413694 3.8910572554413694 3.8910572554413694 3.8910572554413694 3.8910572554413694 3.8910572554413694 5.398149722758019 5.89628099920339 5.784711779710172 5.389457035815857 5.389457035815857 5.389457035815857 5.448686577221958 5.623946401323614 5.655763636115784 5.461556039873569 5.491272628915734 5.140430826947574 5.091822367574461 5.020813696508668 4.907284863128029 4.696722838823769 4.171889136453446 0.5597983613164953 0.4 2.1086628856952583 4.302887628565079 4.741732577139048 4.929808983670749 5.03429587618836 5.100787535063204 5.146820221976557 5.373231667632645 5.4669448029102155 5.4669448029102155 5.4669448029102155 5.4669448029102155 5.94464989674184 5.513835320345801 5.513835320345801 5.513835320345801 5.645543718386078 5.4669448029102155 5.4669448029102155 5.695151226550498 5.477542711457252 5.477542711457252 5.511597289418657 5.511597289418657 5.511597289418657 5.511597289418657 5.631598713896444 5.511597289418657 5.511597289418657 5.836242689012563 5.511597289418657 5.706851425732777 5.998986246340251 5.574736117301269 5.574736117301269 5.574736117301269 
3.8910572554413694 3.8910572554413694 3.8910572554413694 3.8910572554413694 3.8910572554413694 3.8910572554413694 3.8910572554413694 3.8910572554413694 3.8910572554413694 3.8910572554413694 5.564604037453851 5.843740808889761 5.886029567007657 5.459075785862416 5.389457035815857 5.9707871871188605 5.925960314374782 5.902241121133704 5.459383027531205 5.459383027531205 5.131435606591941 5.131435606591941 5.085402919678588 5.018911260803744 4.914424368286133 4.726347961754433 4.287503013180464 2.09327827031061 0.3846153846153846 0.5444137459319545 4.156504521068831 4.681338223439154 4.891900247743415 5.005429081124053 5.076437752189845 5.1250462115629585 5.601687642511004 5.7069470662794135 5.820888044147904 5.716897998138691 5.785453811789428 5.513835320345801 5.513835320345801 5.920357835446894 5.513835320345801 5.513835320345801 5.832946207455378 5.707371194035005 5.477542711457252 5.477542711457252 5.8595058616138616 5.5781351408487145 5.571585296103143 5.511597289418657 5.948359485050204 5.848160236955254 5.564710188767597 5.511597289418657 5.511597289418657 5.511597289418657 5.511597289418657 5.511597289418657 5.659714002784891 5.638561908960755 5.574736117301269 
3.8910572554413694 3.8910572554413694 3.8910572554413694 3.8910572554413694 3.8910572554413694 3.8910572554413694 3.8910572554413694 3.8910572554413694 3.8910572554413694 3.8910572554413694 5.407637374948212 5.3244332695178 5.900831768141073 5.758554549235248 5.745626418965253 5.495005636726372 5.511127486801577 5.459383027531205 5.459383027531205 5.813932481254204 5.792381878077879 5.111211740887613 5.078476607189712 5.016083010185193 4.919594551429572 4.750558379323859 4.377864168536563 2.875793561424124 0.36923076923076925 0.36923076923076925 3.974596398762649 4.614336935674631 4.85172493364826 4.975530157471827 5.051534136575869 5.102941358688312 5.102941358688312 5.5378229727071036 5.800232530968835 5.513835320345801 5.513835320345801 5.513835320345801 5.513835320345801 5.523680664004559 5.69072139659758 5.513835320345801 5.64423223483974 5.796324942787599 5.8012720685281645 5.477542711457252 5.9132700382864805 5.649561885276069 5.477542711457252 5.597740839080889 5.564710188767597 5.564710188767597 5.564710188767597 5.698484884322824 5.511597289418657 5.511597289418657 5.511597289418657 5.835560599412348 5.574736117301269 5.574736117301269 5.574736117301269 
3.8910572554413694 3.8910572554413694 3.8910572554413694 3.8910572554413694 3.8910572554413694 3.8910572554413694 3.8910572554413694 3.8910572554413694 3.8910572554413694 3.8910572554413694 5.009574049298838 5.203915294619627 5.342370562519916 5.917999386046123 5.614215507917269 5.461551138219185 5.7313469235149 5.667719699683843 5.671402019069072 5.5550078145199855 5.5550078145199855 5.9584817590437265 5.0710852333732355 5.0124211419888125 4.923042866633488 4.77027574350843 4.4496326609052845 3.3469332792700732 0.3538461538461538 0.3538461538461538 3.740445607618328 4.539158749315272 4.808922790550663 4.944475865997303 5.026023732102652 5.0804792838872865 5.46747899137334 5.8643657426230575 5.782473960392686 5.68917158417774 5.565353623017001 5.985455699242092 5.513835320345801 5.513835320345801 5.577380810766105 5.762905340358893 5.752931350173375 5.701672422509807 5.477542711457252 5.477542711457252 5.477542711457252 5.477542711457252 5.477542711457252 5.693830412898684 5.564710188767597 5.564710188767597 5.564710188767597 5.983867448449194 5.705938818472756 5.511597289418657 5.511597289418657 5.721157328497943 5.574736117301269 5.891324069254522 5.646497194475358 
3.8910572554413694 3.8910572554413694 3.8910572554413694 3.8910572554413694 3.8910572554413694 3.8910572554413694 3.8910572554413694 3.8910572554413694 3.8910572554413694 3.8910572554413694 5.899284572557013 5.811748933887792 5.342370562519916 5.984338563878976 5.580638440430931 5.461551138219185 5.461551138219185 5.704680996649214 5.461551138219185 5.828943992112912 5.382816414065027 5.382816414065027 5.063266127566491 5.008006004896803 4.92497697636295 4.786223767605034 4.507315802525992 3.6592079087142078 0.3384615384615385 0.3384615384615385 3.4248934487494664 4.453693496981764 4.763052952044622 4.912122534017916 4.999846609006316 5.057630726660791 5.884882499927893 5.722141580084935 5.722141580084935 5.984287827022915 5.797777134694816 5.821995470103689 5.545313324933077 5.7896394257455155 5.76324244676787 5.679746912232523 5.6014383470953995 5.514884303797942 5.477542711457252 5.902943647504952 5.477542711457252 5.477542711457252 5.967037960507219 5.564710188767597 5.564710188767597 5.564710188767597 5.682128608425389 5.93850933978866 5.677282438414714 5.677282438414714 5.574736117301269 5.574736117301269 5.574736117301269 5.574736117301269 5.904131458416134 
3.8910572554413694 3.8910572554413694 3.8910572554413694 3.8910572554413694 3.8910572554413694 3.8910572554413694 3.8910572554413694 3.8910572554413694 3.8910572554413694 3.8910572554413694 5.388154726030324 5.785437704514774 5.342370562519916 5.342370562519916 5.43151721160997 5.461551138219185 5.461551138219185 5.461551138219185 5.461551138219185 5.461551138219185 5.792227930696031 5.839774595084222 5.055052728100965 5.002907943086187 4.9255724406729655 4.7989786564678845 4.554072924407586 3.879508013294129 0.32307692307692304 0.32307692307692304 2.9721218414306607 4.355036595340228 4.713570050057522 4.878301637360063 4.972934676874289 5.034363141120365 5.819857132633604 5.0560610298402615 5.969632991893894 5.721350594911535 5.561152942959115 5.79904220232363 5.912404392112821 5.807517312212168 5.615367892826411 5.998086703165082 5.97370169940902 5.477542711457252 5.477542711457252 5.996277877616394 5.477542711457252 5.477542711457252 5.477542711457252 5.598317274419845 5.601840442051993 5.564710188767597 5.896428774500719 5.702215010083013 5.892507002160089 5.657212190268602 5.825184396367618 5.574736117301269 5.811577759556261 5.590418861036764 5.945482252904576 
3.8910572554413694 3.8910572554413694 3.8910572554413694 3.8910572554413694 3.8910572554413694 3.8910572554413694 3.8910572554413694 3.8910572554413694 3.8910572554413694 3.8910572554413694 5.300464097804947 5.986608837683442 5.836616932586146 5.609129802833794 5.43151721160997 5.988827597647336 5.485125620106343 5.461551138219185 5.949216937140578 5.918483539755713 5.157766530258518 5.046475076398279 5.046475076398279 4.997188806342802 4.924978689749893 4.80900486613098 4.592184239365185 4.041793417575089 0.3076923076923077 0.3076923076923077 2.260157942595301 4.239076361489462 4.659791300939402 4.842814184202934 4.945210246645527 5.010640221563719 5.0560610298402615 5.0560610298402615 5.561152942959115 5.561152942959115 5.561152942959115 5.733225051127311 5.615367892826411 5.615367892826411 5.615367892826411 5.80319392506777 5.477542711457252 5.477542711457252 5.652961495616232 5.477542711457252 5.477542711457252 5.676302937343463 5.762176131891467 5.7023461880358495 5.610404941732214 5.564710188767597 5.564710188767597 5.564710188767597 5.564710188767597 5.657212190268602 5.86743387084569 5.574736117301269 5.6093647816916 5.857924215638926 5.809891109858823 
3.8910572554413694 3.8910572554413694 3.8910572554413694 3.8910572554413694 3.8910572554413694 3.8910572554413694 3.8910572554413694 3.8910572554413694 3.8910572554413694 3.8910572554413694 5.8762372031134165 5.711172693554105 5.439739656060569 5.439739656060569 5.666226981121337 5.85417525710568 5.77061549911984 5.659380977472888 5.728973107590514 5.488618942866539 5.878819605334187 5.053514921580032 5.0375602376401405 4.990903194660736 4.923323710883391 4.8166809416856164 4.623336734115667 4.165137447682772 1.7147673506720573 0.29230769230769227 0.9616009629593149 4.099794245095822 4.60085031535291 4.80542350380107 4.91658427743272 4.9864213433946105 5.034365912189764 5.98430891219997 5.561152942959115 5.561152942959115 5.754779819918662 5.7184356238933995 5.615367892826411 5.915946425980974 5.615367892826411 5.615367892826411 5.62939108858239 5.477542711457252 5.910723708814308 5.897401827836459 5.517694019215915 5.978621546456893 5.534092972234275 5.678109149808444 5.565288415031013 5.766119109787217 5.722552397760845 5.750655516894365 5.802753505755163 5.933599527049624 5.574736117301269 5.574736117301269 5.635201043833695 5.773072470634521 5.809891109858823 
3.8910572554413694 3.8910572554413694 3.8910572554413694 3.8910572554413694 3.8910572554413694 3.8910572554413694 3.8910572554413694 3.8910572554413694 3.8910572554413694 3.8910572554413694 5.110397139963659 5.439739656060569 5.439739656060569 5.439739656060569 5.439739656060569 5.521502433050157 5.521502433050157 5.9472376394356745 5.654203261692293 5.260684173294978 5.209544357514952 5.075393553277979 5.9738979584819765 4.984099490241158 4.920717761522128 4.822318503124077 4.648805307017588 4.261078288557408 2.622618952483738 0.27692307692307694 0.27692307692307694 3.9280144235194854 4.535630934061644 4.7658458852608465 4.886954224517299 4.961660901223387 5.012346138474141 5.8656904896982365 5.561152942959115 5.87731857035642 5.615367892826411 5.615367892826411 5.615367892826411 5.615367892826411 5.615367892826411 5.615367892826411 5.915791063519725 5.477542711457252 5.943409445181402 5.651809186138792 5.534092972234275 5.534092972234275 5.534092972234275 5.853863037042933 5.534092972234275 5.534092972234275 5.951243898084229 5.732347927417347 5.732347927417347 5.795500233425262 5.574736117301269 5.574736117301269 5.806477447907733 5.773072470634521 5.773072470634521 
3.8910572554413694 3.8910572554413694 3.8910572554413694 3.8910572554413694 3.8910572554413694 3.8910572554413694 3.8910572554413694 3.8910572554413694 3.8910572554413694 3.8910572554413694 5.154568996095153 5.979265933941105 5.469113965483704 5.439739656060569 5.904600156110066 5.790561340940269 5.8515945977999415 5.755772302001306 5.40342380758688 5.828404279169291 5.209544357514952 5.395745998692465 5.7789583220887 4.9768207180864925 4.917256336611185 4.826176409381747 4.669571354649116 4.337005564261842 3.151706978009761 0.2615384615384615 0.2615384615384615 3.7090209547909323 4.462670229911093 4.723738279462521 4.856201378496004 4.93630752138977 4.989975993361501 5.460437003716478 5.867368408194087 5.794587383212065 5.615367892826411 5.615367892826411 5.615367892826411 5.615367892826411 5.675386524340967 5.858328742811021 5.719986837723789 5.719986837723789 5.792062572716355 5.95302143540672 5.534092972234275 5.534092972234275 5.534092972234275 5.534092972234275 5.534092972234275 5.534092972234275 5.755582459522021 5.732347927417347 5.732347927417347 5.951497486290208 5.574736117301269 5.574736117301269 5.832343018599099 5.773072470634521 5.910813135988231 
3.8910572554413694 3.8910572554413694 3.8910572554413694 3.8910572554413694 3.8910572554413694 3.8910572554413694 3.8910572554413694 3.8910572554413694 3.8910572554413694 3.8910572554413694 5.117729202642329 5.117729202642329 5.7210387295987415 5.531232034515174 5.438877032050988 5.933884103405768 5.39519025520716 5.39519025520716 5.40342380758688 5.9903036465829445 5.348282201987286 5.817874184393321 5.683159128816861 4.969105267508664 4.913022559280894 4.828471471242074 4.68640263623807 4.397871084735092 3.495442615140669 0.24615384615384617 0.24615384615384617 3.417633227095644 4.380012500284172 4.678681929894404 4.824187549448108 4.9103031202043805 4.967226972060223 5.766464648303077 5.615367892826411 5.615367892826411 5.615367892826411 5.615367892826411 5.914892732652307 5.7017741269554385 5.9803173839193 5.719986837723789 5.719986837723789 5.719986837723789 5.724925558064225 5.708007328001692 5.918641793662938 5.534092972234275 5.977693507375221 5.534092972234275 5.534092972234275 5.655769637804977 5.732347927417347 5.732347927417347 5.732347927417347 5.87581972692987 5.739358879828411 5.639088852597108 5.639088852597108 5.863888416677608 5.8264252803803025 
3.8910572554413694 3.8910572554413694 3.8910572554413694 3.8910572554413694 3.8910572554413694 3.8910572554413694 3.8910572554413694 3.8910572554413694 3.8910572554413694 3.8910572554413694 5.436685009683624 5.6086893306086685 5.88254625625995 5.402726845897379 5.402726845897379 5.402726845897379 5.688179312474938 5.39519025520716 5.346268656371353 5.687436557560283 5.969868965999837 5.794699777641029 5.599483538067862 4.960987500088512 4.908089121523665 4.829386655854016 4.699908405881366 4.447117536887144 3.7347069060852442 0.23076923076923073 0.23076923076923073 3.006892802184933 4.284982703670162 4.630160268304858 4.790750899979824 4.8835817714543825 4.944067391544078 5.697202848284138 5.755548068144817 5.615367892826411 5.615367892826411 5.615367892826411 5.615367892826411 5.615367892826411 5.841821337179019 5.719986837723789 5.819172071492399 5.773898131022168 5.708007328001692 5.708007328001692 5.915484384834031 5.789744939098811 5.721826733630574 5.820654350584339 5.534092972234275 5.534092972234275 5.534092972234275 5.8014357025277254 5.871321918890364 5.871321918890364 5.9833275632727085 5.639088852597108 5.685716196111039 5.8264252803803025 5.8264252803803025 
3.8910572554413694 3.8910572554413694 3.8910572554413694 3.8910572554413694 3.8910572554413694 3.8910572554413694 3.8910572554413694 3.8910572554413694 3.8910572554413694 3.8910572554413694 5.257581122109962 5.257581122109962 5.7398956617447014 5.764676172417574 5.453905824183897 5.402726845897379 5.346268656371353 5.346268656371353 5.346268656371353 5.346268656371353 5.346268656371353 5.346268656371353 5.346268656371353 4.9524982644018065 4.902519870678839 4.8290774423441505 4.710578309509652 4.487212687441083 3.909298458914468 0.2153846153846154 0.2153846153846154 2.37802503408741 4.1738222374400715 4.577528585480592 4.755700660872778 4.856068336530384 4.920461934891358 4.965283010954162 5.701107101276773 5.965490873899947 5.615367892826411 5.615367892826411 5.615367892826411 5.615367892826411 5.999834460302113 5.983898844950886 5.875743992723952 5.708007328001692 5.708007328001692 5.73477792922158 5.740104226913876 5.721826733630574 5.721826733630574 5.992573733019129 5.534092972234275 5.704676803443418 5.782954881280814 5.992049054354797 5.793087091026325 5.907079442174675 5.639088852597108 5.639088852597108 5.8869198287258415 5.593213868752747 5.95704516720355 
3.8910572554413694 3.8910572554413694 3.8910572554413694 3.8910572554413694 3.8910572554413694 3.8910572554413694 3.8910572554413694 3.8910572554413694 3.8910572554413694 3.8910572554413694 5.100724199446908 5.508169631282549 5.611339641538146 5.603075443432354 5.603075443432354 5.402726845897379 5.858708556726985 5.6262254774718 5.346268656371353 5.346268656371353 5.346268656371353 5.648213633256409 5.234424351620624 4.943665333776888 4.896371114916535 4.827676797024348 4.718810363405736 4.519971670598189 4.041078480878602 1.2817415305895719 0.19999999999999996 1.281741530589566 4.041078480878606 4.51997167059819 4.718810363405737 4.827676797024348 4.896371114916535 4.943665333776888 5.45326211855403 5.372296471678724 5.912468993108918 5.9724282438323035 5.994526541426026 5.492089445588409 5.492089445588409 5.492089445588409 5.492089445588409 5.492089445588409 5.847226665364285 5.513555443646194 5.513555443646194 5.78593769455549 5.6443612976514315 5.772281383025315 5.735777166677518 5.949364426087551 5.621464459708093 5.9778262873656125 5.793087091026325 5.959500928334334 5.639088852597108 5.73707629833419 5.593213868752747 5.593213868752747 5.958785189205347 
3.8910572554413694 3.8910572554413694 3.8910572554413694 3.8910572554413694 3.8910572554413694 3.8910572554413694 3.8910572554413694 3.8910572554413694 3.8910572554413694 3.8910572554413694 5.031383672393397 5.599943726468862 5.959530836443007 5.911278901739557 5.88912045931915 5.85787283502055 5.763051380878504 5.593617345426191 5.740662466651353 5.76061146632978 5.4239703420835506 5.209916113191068 5.039714205608761 4.934513780184932 4.889692704122126 4.825299105761153 4.724931430103546 4.5467593547113605 4.143053006670838 2.3472558033181814 0.18461538461538463 0.18461538461538463 3.8785292281452426 4.456443456671854 4.679809078740422 4.79830821157492 4.871750639909609 4.921729033632577 5.981069180058245 5.372296471678724 5.372296471678724 5.544004498698229 5.45221019611882 5.599985488525717 5.492089445588409 5.7351726332421125 5.492089445588409 5.492089445588409 5.492089445588409 5.671277964972807 5.513555443646194 5.513555443646194 5.563620170731319 5.513555443646194 5.513555443646194 5.513555443646194 5.543902730838006 5.874407198965445 5.744507825369914 5.842681435274441 5.639088852597108 5.942226757721027 5.593213868752747 5.593213868752747 5.593213868752747 
3.8910572554413694 3.8910572554413694 3.8910572554413694 3.8910572554413694 3.8910572554413694 3.8910572554413694 3.8910572554413694 3.8910572554413694 3.8910572554413694 3.8910572554413694 5.885825338100763 5.624651934340446 5.568049265753307 5.729324505936184 5.663706288911762 5.593617345426191 5.593617345426191 5.593617345426191 5.7184502224757034 5.49400169304727 5.928025885144755 5.329235916356306 5.2484508740238 5.834541373006399 4.882528930005616 4.822043309915921 4.729212438441363 4.568621806766396 4.2234442421316984 2.945354340646473 0.16923076923076918 0.16923076923076918 3.6731684445467896 4.3855790753486845 4.638369944342905 4.767848194315555 4.846550659985205 4.899449038550052 5.859575306959217 5.372296471678724 5.6217292842918924 5.866348044487068 5.45221019611882 5.45221019611882 5.492089445588409 5.492089445588409 5.492089445588409 5.492089445588409 5.492089445588409 5.85380730488453 5.858122866605591 5.513555443646194 5.513555443646194 5.513555443646194 5.513555443646194 5.587831184604121 5.6086726450501585 5.8742630852441895 5.744507825369914 5.744507825369914 5.791541095744324 5.869154551796189 5.593213868752747 5.641451345516453 5.593213868752747 
3.8910572554413694 3.8910572554413694 3.8910572554413694 3.8910572554413694 3.8910572554413694 3.8910572554413694 3.8910572554413694 3.8910572554413694 3.8910572554413694 3.8910572554413694 5.1593184355487915 5.869455188407328 5.568049265753307 5.494047720643124 5.852028007658403 5.593617345426191 5.593617345426191 5.593617345426191 5.928616239293903 5.49400169304727 5.49400169304727 5.466485638583862 5.4256584901853095 5.721790727899688 4.87491927975253 4.8179954278966886 4.731879857140416 4.586374237586711 4.287704807976478 3.3253255347879525 0.15384615384615385 0.15384615384615385 3.4031349228329852 4.305563392427402 4.594094943930378 4.736163778934382 4.820714866973202 4.876797575200972 5.372296471678724 5.372296471678724 5.974759027429369 5.372296471678724 5.372296471678724 5.585519492104391 5.705879454496694 5.932809524571743 5.660493529270432 5.698167354364624 5.492089445588409 5.570897743861648 5.739321589834853 5.513555443646194 5.513555443646194 5.513555443646194 5.513555443646194 5.7117092233979205 5.579921932600421 5.719290003752163 5.579921932600421 5.9065731585963395 5.579921932600421 5.77239709240703 5.593213868752747 5.731089158812319 5.593213868752747 
3.8910572554413694 3.8910572554413694 3.8910572554413694 3.8910572554413694 3.8910572554413694 3.8910572554413694 3.8910572554413694 3.8910572554413694 3.8910572554413694 3.8910572554413694 5.898869337058848 5.699322354822911 5.391645773996536 5.391645773996536 5.405601464807994 5.593617345426191 5.941455742449187 5.593617345426191 5.788035671681303 5.49400169304727 5.900483610573621 5.903677699115748 5.321738627865303 5.939062758029912 4.866899070284578 4.813230598312847 4.73312445541908 4.600661356385597 4.339593306834168 3.585944031714011 0.1384615384615384 0.1384615384615384 3.0286300549328513 4.213928641184921 4.546494431572194 4.703099486304824 4.794179413534263 4.853743795009569 5.55464476342411 5.372296471678724 5.372296471678724 5.372296471678724 5.372296471678724 5.372296471678724 5.477161652282192 5.477161652282192 5.60779354100394 5.782198775843749 5.496678492570163 5.496678492570163 5.496678492570163 5.742544797219865 5.860334723576479 5.496678492570163 5.911048255131253 5.859831135533041 5.579921932600421 5.901138578951153 5.579921932600421 5.579921932600421 5.579921932600421 5.925150865555683 5.579921932600421 5.897900802896668 5.906287006511272 
3.8910572554413694 3.8910572554413694 3.8910572554413694 3.8910572554413694 3.8910572554413694 3.8910572554413694 3.8910572554413694 3.8910572554413694 3.8910572554413694 3.8910572554413694 5.976372299346627 5.391645773996536 5.391645773996536 5.811897728097539 5.912025163177232 5.829644496038288 5.593617345426191 5.593617345426191 5.61767673808011 5.799341377321037 5.61767673808011 5.793492066563515 5.309867950192713 5.309867950192713 4.858499984627986 4.807814747377233 4.733108070671145 4.611999731414693 4.381784780215488 3.7741682696733325 0.12307692307692308 0.12307692307692308 2.4687727986376045 4.107232134711257 4.494959153171434 4.668472349277923 4.766871607675975 4.830253336395005 5.1342023179915115 5.4467817920630095 5.527385886029863 5.781963395029909 5.372296471678724 5.372296471678724 5.734542819752205 5.477161652282192 5.97535653572131 5.5156678675675614 5.5156678675675614 5.496678492570163 5.496678492570163 5.496678492570163 5.916255347714242 5.496678492570163 5.496678492570163 5.873311802196069 5.579921932600421 5.579921932600421 5.579921932600421 5.579921932600421 5.579921932600421 5.579921932600421 5.579921932600421 5.706036834295937 5.750473555972776 
3.8910572554413694 3.8910572554413694 3.8910572554413694 3.8910572554413694 3.8910572554413694 3.8910572554413694 3.8910572554413694 3.8910572554413694 3.8910572554413694 3.8910572554413694 5.130248947181103 5.304522239181901 5.727785049507536 5.644913783840883 5.644913783840883 5.891788054062523 5.593617345426191 5.878982527370693 5.61767673808011 5.61767673808011 5.61767673808011 5.62710193816961 5.309867950192713 5.375346260130405 4.849750527574379 4.801805958779226 4.731968892817335 4.620808119185686 4.416234930737525 3.9151788604804385 0.7769855783439373 0.10769230769230764 1.5301519660567093 3.9805220630673905 4.438721349500283 4.632065557070232 4.738708326268006 4.806287810045351 4.8529448530247565 5.395922222560928 5.395922222560928 5.422831633991868 5.372296471678724 5.400935097405729 5.447228620649876 5.686912500413279 5.918279065283389 5.867208920047202 5.889083611089207 5.496678492570163 5.496678492570163 5.496678492570163 5.496678492570163 5.496678492570163 5.775467493565743 5.935900120852628 5.579921932600421 5.579921932600421 5.579921932600421 5.825270217132937 5.579921932600421 5.862590506106157 5.579921932600421 5.579921932600421 5.579921932600421 
3.8910572554413694 3.8910572554413694 3.8910572554413694 3.8910572554413694 3.8910572554413694 3.8910572554413694 3.8910572554413694 3.8910572554413694 3.8910572554413694 3.8910572554413694 5.880943627829323 5.560181913253184 5.9298818413528 5.644913783840883 5.644913783840883 5.593617345426191 5.593617345426191 5.689464331880283 5.801408352860769 5.62796029908646 5.728849982218738 5.861098025313295 5.62159158435262 5.829994466499227 4.840676414455646 4.795255606179103 4.729825631260912 4.627429568818319 4.444406685554785 4.023691746104848 2.044773327210689 0.09230769230769231 0.09230769230769231 3.8264088021904787 4.376799623980571 4.593620250746365 4.7095940743652775 4.781804190958186 4.831090461013663 5.770678764506012 5.395922222560928 5.395922222560928 5.429521991528336 5.508994525881111 5.447228620649876 5.9353112863887985 5.620941856215377 5.945257182769034 5.889083611089207 5.895239759565044 5.496678492570163 5.629684142234608 5.496678492570163 5.496678492570163 5.847609656451599 5.579921932600421 5.579921932600421 5.741490304905718 5.579921932600421 5.702604408426936 5.579921932600421 5.9290806178413895 5.579921932600421 5.579921932600421 5.579921932600421 
3.8910572554413694 3.8910572554413694 3.8910572554413694 3.8910572554413694 3.8910572554413694 3.8910572554413694 3.8910572554413694 3.8910572554413694 3.8910572554413694 3.8910572554413694 5.282962380366859 5.987817448689457 5.698622718330341 5.953297227867561 5.650474797791112 5.593617345426191 5.726308670769334 5.659976048021306 5.659976048021306 5.659976048021306 5.65890249396768 5.65890249396768 5.585561375023923 5.476613662937558 5.365360955828135 4.788209294966519 4.726780830720442 4.632147791206217 4.467416203903675 4.108882749186382 2.7259679952768163 0.07692307692307687 0.07692307692307687 3.633354167140288 4.30791907825374 4.552824810314038 4.67941859451912 4.756754096932341 4.808898881947119 5.988426719131681 5.395922222560928 5.915067700454832 5.758898081710149 5.987167079220356 5.447228620649876 5.447228620649876 5.447228620649876 5.447228620649876 5.9971040876093475 5.496678492570163 5.496678492570163 5.496678492570163 5.750854181528972 5.496678492570163 5.895579763513212 5.925281887655671 5.579921932600421 5.579921932600421 5.579921932600421 5.579921932600421 5.579921932600421 5.579921932600421 5.579921932600421 5.579921932600421 5.917789989512625 
3.8910572554413694 3.8910572554413694 3.8910572554413694 3.8910572554413694 3.8910572554413694 3.8910572554413694 3.8910572554413694 3.8910572554413694 3.8910572554413694 3.8910572554413694 5.24202969516953 5.24202969516953 5.698622718330341 5.974690533778722 5.785779465554605 5.678341258318165 5.659976048021306 5.659976048021306 5.659976048021306 5.659976048021306 5.6947533036428695 5.945471631460098 5.465597923488014 5.465597923488014 5.004548658934396 4.780707649737714 4.722923532083239 4.635199457094839 4.486129875121544 4.176770420058687 3.147970371826391 0.06153846153846154 0.06153846153846154 3.3822848317911385 4.2303927256029175 4.5093006906819575 4.648053899439874 4.731082927973726 4.786343050643414 5.712755125112596 5.82946957617266 5.701720416697997 5.733629825655837 5.679377108107677 5.447228620649876 5.447228620649876 5.447228620649876 5.447228620649876 5.585967596087621 5.94535313190729 5.496678492570163 5.496678492570163 5.564602146534682 5.496678492570163 5.810342352603541 5.496678492570163 5.883442971582449 5.579921932600421 5.579921932600421 5.750004771592116 5.699593301045427 5.579921932600421 5.579921932600421 5.579921932600421 5.579921932600421 
3.8910572554413694 3.8910572554413694 3.8910572554413694 3.8910572554413694 3.8910572554413694 3.8910572554413694 3.8910572554413694 3.8910572554413694 3.8910572554413694 3.8910572554413694 5.558089843015192 5.24202969516953 5.405273249417165 5.489419268805262 5.405273249417165 5.6175060397694265 5.91547461933334 5.659976048021306 5.905600358230907 5.659976048021306 5.659976048021306 5.659976048021306 5.851920857994553 5.232933064443857 5.232933064443857 4.772786976194979 4.718331424410343 4.636783558304995 4.501230482858355 4.231466441622964 3.43275329992602 0.0461538461538461 0.0461538461538461 3.0392409715777764 4.141940353212979 4.462583435816122 4.615350558941181 4.704728834296506 4.763392925680929 5.2700753270280245 5.69534563188866 5.701720416697997 5.67338415800703 5.501446325335485 5.447228620649876 5.6853992819095405 5.673275026740274 5.898993944782678 5.558366794138476 5.558366794138476 5.856298946588014 5.684179987877637 5.7316771161764395 5.496678492570163 5.496678492570163 5.496678492570163 5.9705063443254724 5.579921932600421 5.579921932600421 5.579921932600421 5.579921932600421 5.579921932600421 5.804939243219779 5.579921932600421 5.579921932600421 
3.8910572554413694 3.8910572554413694 3.8910572554413694 3.8910572554413694 3.8910572554413694 3.8910572554413694 3.8910572554413694 3.8910572554413694 3.8910572554413694 3.8910572554413694 5.6404504612021045 5.667014777114661 5.405273249417165 5.405273249417165 5.405273249417165 5.615115421839495 5.615115421839495 5.794285409648069 5.659976048021306 5.659976048021306 5.659976048021306 5.924028573151081 5.870075248335649 5.486348011109494 5.400735488336151 4.764479820226774 4.713072598114331 4.637068619010288 4.51326339518672 4.275875397213093 3.6361348603011105 0.03076923076923077 0.03076923076923077 2.537332022962601 4.039402630075028 4.41209684086232 4.581133012968034 4.677621471723655 4.740015068728174 5.552021442724365 5.619696799398922 5.909653537130543 5.989655285863376 5.771729784496763 5.447228620649876 5.447228620649876 5.931093813932313 5.558366794138476 5.881511769837103 5.558366794138476 5.980509996194056 5.558366794138476 5.67651802393675 5.982858950530446 5.629817570615123 5.558366794138476 5.558366794138476 5.579921932600421 5.991173346271317 5.8015140023376786 5.690503803268618 5.579921932600421 5.579921932600421 5.579921932600421 5.982293116098578 
3.8910572554413694 3.8910572554413694 3.8910572554413694 3.8910572554413694 3.8910572554413694 3.8910572554413694 3.8910572554413694 3.8910572554413694 3.8910572554413694 3.8910572554413694 5.7850778879803215 5.667014777114661 5.9477225577566735 5.598269132189504 5.405273249417165 5.405273249417165 5.81346408260635 5.794285409648069 5.934142829218497 5.799836645609283 5.659976048021306 5.659976048021306 5.659976048021306 5.735508637405026 5.717339124821066 4.75581544233219 4.707206982959076 4.636198311893283 4.522669478512644 4.312107454208384 3.787273751838062 0.17518297670111416 0.01538461538461533 1.765384615384634 3.932051282051285 4.365384615384615 4.551098901098901 4.654273504273505 4.71993006993007 5.500409939709742 5.500409939709742 5.664032734771789 5.985032303655117 5.493805777850992 5.447228620649876 5.897185121256148 5.6602629460665765 5.558366794138476 5.558366794138476 5.558366794138476 5.558366794138476 5.558366794138476 5.558366794138476 5.558366794138476 5.558366794138476 5.558366794138476 5.558366794138476 5.558366794138476 5.558366794138476 5.558366794138476 5.73503451842305 5.579921932600421 5.579921932600421 5.579921932600421 5.579921932600421 
