ncols         65
nrows         65
xllcorner     -100.0
yllcorner     -100.0
cellsize      3.076923076923077
69.6228215322139 68.54359818444757 67.48219138295788 66.4394550205821 65.41628192452093 64.41360435525637 63.4323942402717 62.47366308999062 61.53846153846153 60.62787844688626 59.74303950445415 58.885105258475804 58.05526850496371 57.25475097208737 56.484799232879446 55.74667979074904 55.04167329230251 54.37106783714551 53.736151374070715 53.13820319744783 52.578484586569424 52.058228663657324 51.57862958227757 51.14083119567588 50.74591539221736 50.39489032048985 50.088678757229864 49.82810689446661 49.613893835683385 49.446642092271375 49.32682935963507 49.25480182640653 49.23076923076923 49.25480182640653 49.32682935963507 49.44664209227138 49.613893835683385 49.82810689446661 50.088678757229864 50.39489032048985 50.74591539221736 51.14083119567589 51.57862958227757 52.058228663657324 52.57848458656943 53.13820319744783 53.736151374070715 54.37106783714552 55.04167329230251 55.74667979074905 56.484799232879446 57.25475097208737 58.05526850496372 58.88510525847581 59.743039504454146 60.62787844688626 61.53846153846153 62.47366308999062 63.43239424027171 64.41360435525638 65.41628192452093 66.4394550205821 67.48219138295788 68.54359818444757 69.6228215322139 
68.54359818444757 67.44710835933222 66.36816803114766 65.30764700551114 64.2664571514013 63.245553203367585 62.24593330505818 61.268639236122695 60.314756258192794 59.38541250959625 58.48177787307142 57.60506223645863 56.756513063682206 55.93741219291643 55.149071781338215 54.39282932204211 53.67004166926895 52.98207802376174 52.330311851369075 51.71611173529726 51.14083119567588 50.605797548918545 50.1122999227764 49.66157658944299 49.25480182640653 48.89307256021755 48.57739508875983 48.30867220956179 48.08769110180856 47.91511231506903 47.791460206181746 47.71711513621791 47.69230769230769 47.71711513621791 47.791460206181746 47.91511231506904 48.087691101808566 48.30867220956179 48.57739508875983 48.89307256021755 49.25480182640653 49.661576589442994 50.1122999227764 50.60579754891854 51.14083119567588 51.71611173529726 52.330311851369075 52.98207802376174 53.67004166926895 54.39282932204212 55.149071781338215 55.93741219291643 56.756513063682206 57.605062236458636 58.48177787307142 59.38541250959625 60.314756258192794 61.2686392361227 62.24593330505819 63.24555320336759 64.2664571514013 65.30764700551114 66.36816803114768 67.44710835933222 68.54359818444757 
67.48219138295788 66.36816803114766 65.27139518645053 64.19275706161558 63.13318316517905 62.09364944803251 61.075179203936024 60.07884366082041 59.10576219168783 58.1571020659563 57.2340776545793 56.33794899569401 55.47001962252291 54.63163355250678 53.82417133703354 53.049045075589746 52.30769230769231 51.60156871153361 50.93213956075954 50.300869920836355 49.7092136043185 49.158600949755254 48.65042554105199 48.18603004112561 47.76669137310776 47.39360554076727 47.06787243316417 46.790481002293994 46.56229523206632 46.38404132825026 46.256296548839714 46.17948006093426 46.15384615384615 46.17948006093426 46.256296548839714 46.38404132825026 46.562295232066326 46.790481002293994 47.06787243316417 47.39360554076727 47.76669137310776 48.18603004112562 48.65042554105199 49.15860094975525 49.7092136043185 50.300869920836355 50.93213956075954 51.60156871153361 52.30769230769231 53.049045075589746 53.82417133703354 54.63163355250678 55.47001962252291 56.33794899569402 57.2340776545793 58.1571020659563 59.10576219168783 60.078843660820425 61.07517920393603 62.093649448032515 63.13318316517905 64.19275706161558 65.27139518645055 66.36816803114766 67.48219138295786 
66.4394550205821 65.30764700551114 64.19275706161558 63.095682013568855 62.01736729460423 60.958808480489076 59.92105259738599 58.90519913562045 57.91240069144219 56.9438631486823 56.00084530215783 55.08465781528663 54.19666139633396 53.33826407187605 52.51091743346465 51.71611173529726 50.955369728243674 50.230239130198484 49.54228365570652 48.89307256021755 48.28416869684682 47.71711513621791 47.19342046208605 46.71454292519685 46.28187371228099 45.89671966208091 45.56028583064876 45.27365836788357 45.03778821016753 44.85347611419462 44.72135954999579 44.64190193399049 44.61538461538461 44.64190193399049 44.72135954999579 44.85347611419462 45.03778821016753 45.27365836788357 45.56028583064876 45.89671966208091 46.28187371228099 46.71454292519685 47.19342046208605 47.71711513621791 48.28416869684682 48.89307256021755 49.54228365570652 50.230239130198484 50.955369728243674 51.71611173529727 52.510917433464655 53.33826407187605 54.19666139633396 55.08465781528664 56.00084530215783 56.9438631486823 57.91240069144219 58.90519913562046 59.921052597385994 60.95880848048908 62.01736729460423 63.095682013568855 64.1927570616156 65.30764700551114 66.4394550205821 
65.41628192452093 64.2664571514013 63.13318316517905 62.01736729460423 60.919968840687176 59.842001042389924 58.784532844747076 57.74869039730295 56.73565819872546 55.74667979074905 54.78305789158417 53.84615384615385 52.937386258723855 52.058228663657324 51.21020608336381 50.39489032048985 49.613893835683385 48.86886207467259 48.161464130764706 47.49338166287117 46.86629603608559 46.281873712281 45.74174999174925 45.24751129185459 44.800676241726265 44.402675968190195 44.05483404085032 43.758346625624284 43.514263457633696 43.32347027793453 43.18667337728677 43.10438684960585 43.07692307692308 43.10438684960585 43.18667337728677 43.32347027793453 43.514263457633696 43.758346625624284 44.05483404085032 44.402675968190195 44.800676241726265 45.24751129185459 45.74174999174925 46.281873712281 46.86629603608559 47.49338166287117 48.161464130764706 48.86886207467259 49.613893835683385 50.39489032048985 51.210206083363815 52.058228663657324 52.93738625872386 53.846153846153854 54.78305789158417 55.74667979074905 56.73565819872546 57.74869039730296 58.78453284474709 59.84200104238993 60.919968840687176 62.01736729460423 63.133183165179055 64.2664571514013 65.41628192452092 
64.41360435525637 63.245553203367585 62.09364944803251 60.958808480489076 59.842001042389924 58.74425566780549 57.66666096612712 56.610367670689534 55.57659036365675 54.56660877220985 53.58176851467076 52.623481158421754 51.69322343511213 50.79253544375132 49.923017660270624 49.08632656475021 48.28416869684682 47.518292958401545 46.790481002294 46.10253558083599 45.45626677752048 44.85347611419462 44.29593861196298 43.785382986946786 43.32347027793453 42.91177132609647 42.5517436490441 42.24470836229533 41.991827889095944 41.794085252941926 41.65226575594118 41.56694180340399 41.53846153846154 41.56694180340399 41.65226575594118 41.794085252941926 41.991827889095944 42.24470836229533 42.5517436490441 42.91177132609648 43.32347027793453 43.78538298694679 44.29593861196298 44.85347611419462 45.45626677752048 46.10253558083599 46.790481002294 47.518292958401545 48.28416869684682 49.08632656475021 49.923017660270624 50.79253544375132 51.69322343511214 52.62348115842176 53.58176851467076 54.56660877220985 55.57659036365675 56.61036767068954 57.666660966127125 58.7442556678055 59.842001042389924 60.958808480489076 62.093649448032515 63.245553203367585 64.41360435525637 
63.4323942402717 62.24593330505818 61.075179203936024 59.92105259738599 58.784532844747076 57.66666096612712 56.568542494923804 55.491350144219794 54.43632619370502 53.40478448526087 52.39811189515815 51.41776912944124 50.46529066725146 49.54228365570652 48.65042554105199 47.791460206181746 46.9671923768423 46.17948006093426 45.43022480071816 44.721359549995796 44.05483404085032 43.43259757997878 42.85657931441268 42.32866612983878 41.85067848841675 41.42434467026541 41.05127404346564 40.732930138073 40.470604424510476 40.265391779392004 40.118168647400914 40.02957486540827 40.0 40.02957486540827 40.118168647400914 40.265391779392004 40.470604424510476 40.732930138073 41.05127404346564 41.42434467026542 41.85067848841675 42.32866612983878 42.85657931441268 43.43259757997878 44.05483404085032 44.721359549995796 45.43022480071816 46.17948006093426 46.9671923768423 47.791460206181746 48.65042554105199 49.54228365570652 50.465290667251466 51.417769129441254 52.39811189515815 53.40478448526087 54.43632619370502 55.4913501442198 56.56854249492381 57.666660966127125 58.784532844747076 59.92105259738599 61.07517920393603 62.24593330505818 63.4323942402717 
62.47366308999062 61.268639236122695 60.07884366082041 58.90519913562045 57.74869039730295 56.610367670689534 55.491350144219794 54.39282932204211 53.316072157426014 52.26242385065547 51.23331017029758 50.230239130198484 49.25480182640652 48.30867220956179 47.39360554076727 46.51143525486454 45.66406793740256 44.85347611419462 44.08168855967509 43.35077785724729 42.662844996498606 42.02000087306973 41.42434467026541 40.87793924795822 40.38278384125134 39.94078457152975 39.55372348363828 39.2232270276368 38.95073508052973 38.737471729274375 38.58441908918293 38.4922953944517 38.46153846153846 38.4922953944517 38.58441908918293 38.737471729274375 38.95073508052973 39.2232270276368 39.55372348363828 39.940784571529754 40.38278384125134 40.877939247958224 41.42434467026541 42.020000873069726 42.662844996498606 43.350777857247294 44.08168855967509 44.85347611419462 45.66406793740256 46.51143525486454 47.39360554076727 48.308672209561784 49.25480182640653 50.23023913019849 51.23331017029757 52.26242385065547 53.316072157426014 54.39282932204212 55.49135014421981 56.61036767068954 57.74869039730295 58.90519913562045 60.078843660820425 61.268639236122695 62.473663089990616 
61.53846153846153 60.314756258192794 59.10576219168783 57.91240069144219 56.73565819872546 55.57659036365675 54.43632619370502 53.316072157426014 52.217116149160425 51.14083119567588 50.088678757229864 49.06221144339069 48.06307492865633 47.09300881542759 46.153846153846146 45.24751129185459 44.37601569801833 43.54145137872278 42.745981505999396 41.99182788909594 41.281254969226886 40.616550099827954 40.0 39.43386343992706 38.920340432841584 38.46153846153846 38.05943654416301 37.715848221942345 37.43238480183519 37.210420376762535 37.05106024243783 36.95511430604404 36.92307692307692 36.95511430604404 37.05106024243783 37.210420376762535 37.43238480183519 37.715848221942345 38.05943654416301 38.46153846153846 38.920340432841584 39.433863439927066 40.0 40.616550099827954 41.281254969226886 41.99182788909594 42.7459815059994 43.54145137872278 44.37601569801833 45.24751129185459 46.15384615384615 47.09300881542758 48.063074928656334 49.062211443390694 50.08867875722986 51.14083119567588 52.217116149160425 53.31607215742602 54.43632619370503 55.576590363656756 56.73565819872546 57.91240069144219 59.10576219168784 60.314756258192794 61.53846153846153 
60.62787844688626 59.38541250959625 58.1571020659563 56.9438631486823 55.74667979074905 54.56660877220985 53.40478448526087 52.26242385065547 51.14083119567588 50.041402976278754 48.965632193352455 47.91511231506904 46.89154047424052 45.89671966208092 44.932559589262254 44.001075834077206 43.104386849605845 42.24470836229533 41.42434467026542 40.64567634960894 39.91114391099338 39.22322702763681 38.58441908918294 37.99719703147221 37.46398665195668 36.98712393898864 36.568813304629884 36.21108398750714 35.91574624593463 35.6843492453637 35.51814270958522 35.418044409911815 35.38461538461539 35.418044409911815 35.51814270958522 35.6843492453637 35.91574624593463 36.21108398750714 36.568813304629884 36.987123938988645 37.46398665195668 37.99719703147221 38.58441908918294 39.22322702763681 39.91114391099338 40.64567634960895 41.42434467026542 42.24470836229533 43.104386849605845 44.00107583407721 44.93255958926226 45.89671966208091 46.89154047424053 47.915112315069045 48.965632193352455 50.041402976278754 51.14083119567588 52.26242385065548 53.404784485260876 54.566608772209854 55.74667979074905 56.9438631486823 58.15710206595631 59.38541250959625 60.62787844688624 
59.74303950445415 58.48177787307142 57.2340776545793 56.00084530215783 54.78305789158417 53.58176851467076 52.39811189515815 51.23331017029758 50.088678757229864 48.965632193352455 47.86568980339706 46.790481002293994 45.741749991749245 44.721359549995796 43.73129354939044 42.7736577675626 41.85067848841675 40.96469832521338 40.118168647400914 39.31363796670965 38.55373564966667 37.84115038845798 37.178602995675604 36.568813304629884 36.01446126375269 35.51814270958521 35.082320772281165 34.70927437747224 34.40104580768907 34.15938970949926 33.98572620673003 33.88110083930037 33.84615384615385 33.88110083930037 33.98572620673003 34.15938970949926 34.40104580768907 34.70927437747224 35.082320772281165 35.51814270958522 36.01446126375269 36.568813304629884 37.178602995675604 37.841150388457976 38.55373564966667 39.313637966709656 40.11816864740092 40.96469832521338 41.85067848841675 42.773657767562604 43.73129354939045 44.72135954999579 45.74174999174925 46.79048100229401 47.86568980339706 48.965632193352455 50.088678757229864 51.23331017029758 52.398111895158166 53.58176851467077 54.78305789158417 56.00084530215783 57.23407765457931 58.48177787307142 59.743039504454146 
58.885105258475804 57.60506223645863 56.33794899569401 55.08465781528663 53.84615384615385 52.623481158421754 51.41776912944124 50.230239130198484 49.06221144339069 47.91511231506904 46.790481002293994 45.689976630515375 44.61538461538461 43.56862233386553 42.55174364904409 41.566941803403985 40.616550099827954 39.70303969404289 38.82901373576604 37.99719703147221 37.21042037676254 36.471598741937534 35.78370261419387 35.149722027064186 34.57262316037574 34.05529787873639 33.600507181294695 33.21082022295831 32.88855127143377 32.63569759322527 32.453881707275364 32.344301602505595 32.30769230769231 32.344301602505595 32.453881707275364 32.63569759322527 32.88855127143377 33.21082022295831 33.600507181294695 34.0552978787364 34.57262316037574 35.14972202706419 35.78370261419387 36.471598741937534 37.21042037676254 37.99719703147221 38.82901373576605 39.70303969404289 40.616550099827954 41.56694180340399 42.5517436490441 43.56862233386552 44.61538461538461 45.68997663051539 46.790481002293994 47.91511231506904 49.06221144339069 50.23023913019849 51.417769129441254 52.62348115842176 53.84615384615385 55.08465781528663 56.33794899569402 57.60506223645863 58.885105258475804 
58.05526850496371 56.756513063682206 55.47001962252291 54.19666139633396 52.937386258723855 51.69322343511213 50.46529066725146 49.25480182640652 48.06307492865633 46.89154047424052 45.741749991749245 44.61538461538461 43.51426345763369 42.44035145887299 41.395766298688336 40.38278384125134 39.40384146112522 38.46153846153846 37.558632663796004 36.69803212885096 35.882780891355694 35.116037570810235 34.401045807689066 33.74109569147893 33.139475736212326 32.59941553910321 32.124020027417075 31.716197120135845 31.378581622109444 31.11345910177951 30.922694218833506 30.807668299231974 30.769230769230766 30.807668299231974 30.922694218833506 31.11345910177951 31.378581622109444 31.716197120135845 32.124020027417075 32.59941553910321 33.139475736212326 33.74109569147893 34.401045807689066 35.116037570810235 35.882780891355694 36.69803212885096 37.55863266379601 38.46153846153846 39.40384146112522 40.382783841251346 41.395766298688336 42.44035145887298 43.514263457633696 44.61538461538462 45.74174999174924 46.89154047424052 48.06307492865633 49.25480182640653 50.46529066725147 51.69322343511214 52.937386258723855 54.19666139633396 55.47001962252292 56.756513063682206 58.05526850496371 
57.25475097208737 55.93741219291643 54.63163355250678 53.33826407187605 52.058228663657324 50.79253544375132 49.54228365570652 48.30867220956179 47.09300881542759 45.89671966208092 44.721359549995796 43.56862233386553 42.44035145887299 41.33855028475201 40.265391779392 39.2232270276368 38.214591841151446 37.242210575108324 36.30899606524907 35.41804440991181 34.57262316037574 33.77615138476946 33.03217008243675 32.344301602505595 31.71619712013585 31.15147189433321 30.65362899257119 30.225973391366924 29.871519752227073 29.592898556417452 29.392266422373538 29.271227062216074 29.23076923076923 29.271227062216074 29.392266422373538 29.592898556417452 29.871519752227076 30.225973391366924 30.653628992571193 31.15147189433321 31.71619712013585 32.344301602505595 33.03217008243675 33.776151384769456 34.57262316037575 35.41804440991181 36.30899606524907 37.242210575108324 38.214591841151446 39.22322702763681 40.265391779392004 41.338550284752 42.44035145887299 43.568622333865534 44.72135954999579 45.89671966208092 47.09300881542759 48.30867220956179 49.54228365570653 50.792535443751326 52.058228663657324 53.33826407187605 54.631633552506784 55.93741219291643 57.254750972087365 
56.484799232879446 55.149071781338215 53.82417133703354 52.510917433464655 51.210206083363815 49.923017660270624 48.65042554105199 47.39360554076727 46.15384615384615 44.93255958926226 43.73129354939045 42.5517436490441 41.395766298688336 40.265391779392004 39.162837111870324 38.09051816350753 37.05106024243783 36.04730619649225 35.08232077228117 34.15938970949926 33.28201177351375 32.453881707275364 31.678861972267697 30.960941226920163 30.304177851680322 29.712627562812255 29.19025532463119 28.74083337272216 28.36782909936273 28.0742886013764 27.862723501961284 27.735009811261456 27.692307692307693 27.735009811261456 27.862723501961284 28.0742886013764 28.367829099362734 28.74083337272216 29.190255324631195 29.71262756281226 30.304177851680322 30.960941226920166 31.678861972267697 32.453881707275364 33.28201177351375 34.15938970949926 35.08232077228117 36.04730619649225 37.05106024243783 38.09051816350754 39.162837111870324 40.265391779392 41.39576629868834 42.551743649044106 43.73129354939044 44.93255958926226 46.15384615384615 47.393605540767275 48.650425541052 49.92301766027063 51.210206083363815 52.510917433464655 53.82417133703355 55.149071781338215 56.48479923287944 
55.74667979074904 54.39282932204211 53.049045075589746 51.71611173529726 50.39489032048985 49.08632656475021 47.791460206181746 46.51143525486454 45.24751129185459 44.001075834077206 42.7736577675626 41.566941803403985 40.38278384125134 39.2232270276368 38.090518163507525 36.98712393898864 35.91574624593462 34.87933553462965 33.88110083930037 32.92451470620414 32.01331084105356 31.15147189433321 30.34320449740926 29.59289855641745 28.905068043162977 28.2842712474619 27.735009811261452 27.261607917952848 26.868075687035354 26.55796384866472 26.334219644036445 26.199055947579076 26.153846153846153 26.199055947579076 26.334219644036445 26.55796384866472 26.868075687035358 27.261607917952848 27.735009811261456 28.284271247461902 28.905068043162977 29.592898556417452 30.34320449740926 31.151471894333206 32.01331084105356 32.92451470620414 33.88110083930037 34.87933553462965 35.91574624593462 36.987123938988645 38.09051816350753 39.2232270276368 40.382783841251346 41.566941803404 42.77365776756259 44.001075834077206 45.24751129185459 46.51143525486454 47.79146020618176 49.086326564750216 50.39489032048985 51.71611173529726 53.04904507558975 54.39282932204211 55.746679790749035 
55.04167329230251 53.67004166926895 52.30769230769231 50.955369728243674 49.613893835683385 48.28416869684682 46.9671923768423 45.66406793740256 44.37601569801833 43.104386849605845 41.85067848841675 40.616550099827954 39.40384146112522 38.214591841151446 37.05106024243783 35.91574624593462 34.81141076610695 33.74109569147893 32.70814096226046 31.716197120135845 30.76923076923077 29.871519752227076 29.027634252481857 28.242399616439716 27.520836646151256 26.86807568703535 26.28924229328471 25.789314791138782 25.372957696108678 25.044339378614932 24.806946917841692 24.66341467981753 24.615384615384613 24.66341467981753 24.806946917841692 25.044339378614932 25.372957696108678 25.789314791138782 26.28924229328471 26.868075687035354 27.520836646151256 28.24239961643972 29.027634252481857 29.871519752227073 30.76923076923077 31.71619712013585 32.708140962260465 33.74109569147894 34.81141076610695 35.91574624593463 37.05106024243783 38.214591841151446 39.403841461125225 40.61655009982797 41.85067848841674 43.104386849605845 44.37601569801833 45.66406793740256 46.96719237684231 48.28416869684682 49.613893835683385 50.955369728243674 52.307692307692314 53.67004166926895 55.04167329230251 
54.37106783714551 52.98207802376173 51.6015687115336 50.230239130198484 48.86886207467259 47.51829295840154 46.17948006093426 44.85347611419462 43.54145137872278 42.24470836229533 40.96469832521338 39.70303969404289 38.46153846153846 37.24221057510832 36.047306196492244 34.87933553462964 33.74109569147893 32.63569759322527 31.566591582589524 30.53758960196801 29.552881095843915 28.61703882728965 27.735009811261456 26.912085668516767 26.15384615384615 25.46606978037976 24.854606802159243 24.325212770525994 23.88334568655388 23.53393621658208 23.28114761603316 23.128148274419857 23.076923076923073 23.128148274419857 23.28114761603316 23.53393621658208 23.88334568655388 24.325212770525994 24.85460680215925 25.466069780379765 26.15384615384615 26.91208566851677 27.735009811261456 28.617038827289647 29.55288109584392 30.53758960196801 31.566591582589528 32.63569759322527 33.74109569147893 34.87933553462965 36.04730619649225 37.24221057510832 38.46153846153846 39.7030396940429 40.96469832521337 42.24470836229533 43.54145137872278 44.85347611419462 46.179480060934274 47.518292958401545 48.86886207467259 50.230239130198484 51.601568711533616 52.98207802376173 54.37106783714551 
53.73615137407071 52.33031185136907 50.93213956075953 49.54228365570652 48.161464130764706 46.790481002293994 45.43022480071815 44.08168855967509 42.745981505999396 41.42434467026542 40.118168647400914 38.82901373576604 37.558632663796004 36.30899606524906 35.082320772281165 33.881100839300366 32.70814096226046 31.566591582589524 30.459984420343584 29.392266422373535 28.36782909936273 27.391528945792086 26.468693129361927 25.6051030416819 24.80694691784169 24.08073206538235 23.433148018042793 22.870874995874622 22.400338120863132 22.02741702042516 21.757131728816844 21.593336688643383 21.538461538461537 21.593336688643383 21.757131728816844 22.02741702042516 22.400338120863132 22.870874995874622 23.433148018042793 24.080732065382353 24.80694691784169 25.605103041681904 26.468693129361927 27.391528945792082 28.367829099362734 29.392266422373538 30.45998442034359 31.566591582589528 32.70814096226046 33.88110083930037 35.082320772281165 36.30899606524906 37.55863266379601 38.82901373576605 40.11816864740091 41.42434467026542 42.745981505999396 44.08168855967509 45.430224800718165 46.79048100229401 48.161464130764706 49.54228365570652 50.93213956075954 52.33031185136907 53.7361513740707 
53.13820319744783 51.71611173529726 50.300869920836355 48.89307256021755 47.49338166287117 46.10253558083599 44.721359549995796 43.350777857247294 41.99182788909594 40.64567634960895 39.313637966709656 37.99719703147221 36.69803212885096 35.41804440991181 34.15938970949926 32.92451470620414 31.71619712013585 30.537589601968012 29.392266422373538 28.2842712474619 27.218163096852514 26.199055947579083 25.232645333625733 24.32521277052599 23.48359618842115 22.715112400359075 22.02741702042516 21.42828965720634 20.925339244208374 20.52563702173282 20.235302212255238 20.059084323700457 20.0 20.059084323700457 20.235302212255238 20.525637021732823 20.925339244208377 21.42828965720634 22.02741702042516 22.71511240035908 23.48359618842115 24.325212770525994 25.232645333625733 26.199055947579076 27.218163096852514 28.284271247461902 29.392266422373545 30.537589601968016 31.71619712013585 32.92451470620415 34.15938970949926 35.41804440991181 36.69803212885097 37.997197031472226 39.31363796670965 40.64567634960895 41.99182788909594 43.3507778572473 44.7213595499958 46.102535580836005 47.49338166287117 48.89307256021755 50.30086992083636 51.71611173529726 53.13820319744782 
52.578484586569424 51.14083119567588 49.7092136043185 48.28416869684681 46.866296036085586 45.45626677752048 44.05483404085032 42.662844996498606 41.281254969226886 39.91114391099338 38.55373564966667 37.210420376762535 35.882780891355694 34.57262316037574 33.282011773513744 32.01331084105355 30.769230769230766 29.552881095843915 28.36782909936273 27.218163096852507 26.108558074580216 25.044339378614932 24.031537464328167 23.07692307692307 22.188007849009164 21.372990752999694 20.64062748461344 20.0 19.460170216420792 19.029718272081507 18.716192400917596 18.525530121218914 18.46153846153846 18.525530121218914 18.716192400917596 19.02971827208151 19.460170216420796 20.0 20.640627484613443 21.3729907529997 22.188007849009164 23.076923076923077 24.031537464328167 25.04433937861493 26.10855807458022 27.21816309685251 28.367829099362737 29.55288109584392 30.769230769230766 32.01331084105356 33.282011773513744 34.572623160375734 35.882780891355694 37.21042037676255 38.55373564966666 39.91114391099338 41.281254969226886 42.66284499649861 44.05483404085033 45.45626677752049 46.866296036085586 48.28416869684681 49.709213604318506 51.14083119567588 52.57848458656942 
52.058228663657324 50.60579754891854 49.15860094975525 47.71711513621791 46.281873712281 44.85347611419462 43.43259757997878 42.020000873069726 40.616550099827954 39.22322702763681 37.841150388457976 36.471598741937534 35.116037570810235 33.776151384769456 32.45388170727536 31.151471894333206 29.871519752227073 28.61703882728965 27.391528945792086 26.199055947579073 25.044339378614932 23.93284490169853 22.870874995874622 21.865646774695218 20.92533924420837 20.059084323700453 19.27686782483333 18.589301497837802 18.007230631876343 17.541160386140582 17.200522903844533 16.992863103365014 16.92307692307692 16.992863103365014 17.200522903844533 17.541160386140582 18.007230631876347 18.589301497837802 19.27686782483333 20.059084323700457 20.92533924420837 21.86564677469522 22.870874995874622 23.932844901698527 25.044339378614936 26.199055947579076 27.39152894579209 28.617038827289655 29.871519752227073 31.151471894333213 32.453881707275364 33.776151384769456 35.11603757081024 36.47159874193754 37.84115038845797 39.22322702763681 40.616550099827954 42.02000087306973 43.4325975799788 44.85347611419463 46.281873712281 47.71711513621791 49.15860094975526 50.60579754891854 52.05822866365732 
51.57862958227757 50.1122999227764 48.65042554105199 47.19342046208605 45.74174999174925 44.29593861196298 42.85657931441268 41.42434467026541 40.0 38.58441908918294 37.178602995675604 35.78370261419387 34.401045807689066 33.03217008243675 31.678861972267693 30.34320449740926 29.027634252481857 27.735009811261456 26.46869312936193 25.23264533362573 24.03153746432817 22.870874995874626 21.757131728816848 20.697883149344165 19.701920730562613 18.779316331898006 17.941390445677847 17.200522903844536 16.569737868106166 16.06201001370854 15.689290811054725 15.461347109416756 15.384615384615387 15.461347109416756 15.689290811054725 16.06201001370854 16.56973786810617 17.200522903844536 17.94139044567785 18.77931633189801 19.701920730562613 20.69788314934417 21.757131728816848 22.870874995874622 24.031537464328174 25.232645333625733 26.468693129361938 27.73500981126146 29.027634252481857 30.34320449740927 31.678861972267697 33.03217008243675 34.40104580768907 35.78370261419388 37.178602995675604 38.58441908918294 40.0 41.42434467026542 42.85657931441269 44.29593861196299 45.74174999174925 47.19342046208605 48.650425541052 50.1122999227764 51.578629582277564 
51.14083119567588 49.66157658944299 48.18603004112561 46.71454292519685 45.24751129185459 43.785382986946786 42.32866612983878 40.87793924795822 39.43386343992706 37.99719703147221 36.568813304629884 35.149722027064186 33.74109569147893 32.344301602505595 30.96094122692016 29.59289855641745 28.242399616439716 26.912085668516767 25.605103041681904 24.32521277052599 23.076923076923077 21.86564677469522 20.697883149344165 19.58141855593515 18.52553012121891 17.54116038614058 16.641005886756865 15.839430986133841 15.152088925840156 14.595127662315589 14.18391454968136 13.931361750980635 13.84615384615384 13.931361750980635 14.18391454968136 14.595127662315592 15.152088925840157 15.839430986133841 16.64100588675687 17.541160386140582 18.52553012121891 19.58141855593516 20.697883149344165 21.865646774695218 23.076923076923077 24.32521277052599 25.605103041681907 26.91208566851677 28.242399616439716 29.59289855641746 30.960941226920163 32.34430160250559 33.74109569147894 35.1497220270642 36.56881330462988 37.99719703147221 39.43386343992706 40.877939247958224 42.328666129838794 43.7853829869468 45.24751129185459 46.71454292519685 48.18603004112562 49.66157658944299 51.14083119567587 
50.74591539221736 49.25480182640653 47.76669137310776 46.28187371228099 44.800676241726265 43.32347027793453 41.85067848841675 40.38278384125134 38.920340432841584 37.46398665195668 36.01446126375269 34.57262316037574 33.139475736212326 31.71619712013585 30.30417785168032 28.905068043162977 27.520836646151256 26.153846153846153 24.806946917841692 23.48359618842115 22.188007849009168 20.925339244208377 19.701920730562613 18.52553012121891 17.405705383053476 16.35407048113023 15.384615384615381 14.513817126240928 13.760418323075628 13.144621146642354 12.686478848054339 12.403473458920846 12.307692307692307 12.403473458920846 12.686478848054339 13.144621146642358 13.760418323075632 14.513817126240928 15.384615384615385 16.354070481130233 17.405705383053476 18.525530121218914 19.701920730562613 20.92533924420837 22.188007849009168 23.48359618842115 24.806946917841696 26.153846153846157 27.520836646151256 28.905068043162984 30.304177851680322 31.716197120135845 33.13947573621233 34.57262316037575 36.014461263752686 37.46398665195668 38.920340432841584 40.382783841251346 41.85067848841676 43.32347027793454 44.800676241726265 46.28187371228099 47.766691373107776 49.25480182640653 50.745915392217356 
50.39489032048985 48.89307256021755 47.39360554076727 45.89671966208091 44.402675968190195 42.91177132609647 41.42434467026541 39.94078457152975 38.46153846153846 36.98712393898864 35.51814270958521 34.05529787873639 32.59941553910321 31.15147189433321 29.71262756281225 28.2842712474619 26.86807568703535 25.466069780379765 24.08073206538235 22.715112400359075 21.3729907529997 20.059084323700457 18.779316331898006 17.54116038614058 16.35407048113023 15.229992210171789 14.183914549681361 13.234346564680964 12.403473458920843 11.716574009021393 11.200169060431564 10.87856586440842 10.769230769230766 10.878565864408422 11.200169060431564 11.716574009021397 12.403473458920846 13.234346564680964 14.183914549681365 15.229992210171794 16.35407048113023 17.541160386140582 18.779316331898006 20.059084323700453 21.3729907529997 22.715112400359075 24.08073206538236 25.46606978037977 26.86807568703535 28.284271247461906 29.712627562812255 31.151471894333206 32.59941553910322 34.055297878736404 35.51814270958521 36.98712393898864 38.46153846153846 39.940784571529754 41.42434467026543 42.91177132609648 44.402675968190195 45.89671966208091 47.393605540767275 48.89307256021755 50.39489032048984 
50.088678757229864 48.57739508875983 47.06787243316417 45.56028583064876 44.05483404085032 42.5517436490441 41.05127404346564 39.55372348363828 38.05943654416301 36.568813304629884 35.082320772281165 33.600507181294695 32.124020027417075 30.65362899257119 29.190255324631188 27.735009811261452 26.28924229328471 24.854606802159246 23.433148018042793 22.027417020425155 20.640627484613443 19.276867824833335 17.941390445677847 16.641005886756865 15.384615384615381 14.183914549681361 13.054279037290103 12.01576873216408 11.094003924504579 10.320313742306718 9.730085108210394 9.358096200458796 9.230769230769226 9.358096200458798 9.730085108210394 10.32031374230672 11.094003924504582 12.01576873216408 13.054279037290108 14.183914549681365 15.384615384615381 16.641005886756872 17.941390445677847 19.27686782483333 20.640627484613447 22.02741702042516 23.4331480180428 24.85460680215925 26.28924229328471 27.73500981126146 29.19025532463119 30.653628992571186 32.12402002741708 33.60050718129471 35.082320772281165 36.568813304629884 38.05943654416301 39.55372348363829 41.051274043465654 42.551743649044106 44.05483404085032 45.56028583064876 47.067872433164176 48.57739508875983 50.088678757229864 
49.82810689446661 48.30867220956179 46.790481002293994 45.27365836788357 43.758346625624284 42.24470836229533 40.732930138073 39.2232270276368 37.715848221942345 36.21108398750714 34.70927437747224 33.21082022295831 31.716197120135845 30.225973391366924 28.740833372722157 27.261607917952848 25.789314791138782 24.325212770525994 22.870874995874626 21.428289657206335 20.000000000000004 18.589301497837805 17.200522903844536 15.839430986133841 14.513817126240928 13.234346564680964 12.01576873216408 10.878565864408424 9.850960365281306 8.970695222838923 8.284868934053085 7.844645405527363 7.692307692307693 7.8446454055273644 8.284868934053085 8.970695222838927 9.850960365281312 10.878565864408424 12.015768732164087 13.234346564680969 14.513817126240928 15.839430986133848 17.200522903844536 18.589301497837802 20.000000000000007 21.42828965720634 22.870874995874633 24.325212770526 25.789314791138782 27.261607917952855 28.74083337272216 30.22597339136692 31.716197120135856 33.210820222958326 34.709274377472234 36.21108398750714 37.715848221942345 39.22322702763681 40.732930138073016 42.244708362295334 43.758346625624284 45.27365836788357 46.79048100229401 48.30867220956179 49.8281068944666 
49.613893835683385 48.08769110180856 46.56229523206632 45.03778821016753 43.514263457633696 41.99182788909594 40.470604424510476 38.95073508052973 37.43238480183519 35.91574624593463 34.40104580768907 32.88855127143377 31.37858162210944 29.871519752227073 28.367829099362726 26.86807568703535 25.372957696108678 23.88334568655388 22.400338120863132 20.92533924420837 19.460170216420796 18.007230631876347 16.569737868106166 15.152088925840152 13.760418323075625 12.403473458920839 11.094003924504575 9.850960365281303 8.702852691526733 7.692307692307685 6.88020916153781 6.343239424027163 6.153846153846146 6.343239424027165 6.88020916153781 7.692307692307689 8.702852691526738 9.850960365281303 11.09400392450458 12.403473458920846 13.760418323075625 15.15208892584016 16.569737868106166 18.00723063187634 19.4601702164208 20.925339244208374 22.40033812086314 23.883345686553884 25.372957696108678 26.86807568703536 28.36782909936273 29.87151975222707 31.378581622109447 32.88855127143378 34.401045807689066 35.91574624593463 37.43238480183519 38.95073508052974 40.47060442451049 41.99182788909595 43.514263457633696 45.03778821016753 46.56229523206633 48.08769110180856 49.61389383568338 
49.446642092271375 47.91511231506903 46.38404132825026 44.85347611419462 43.32347027793453 41.794085252941926 40.265391779392004 38.737471729274375 37.210420376762535 35.6843492453637 34.15938970949926 32.63569759322527 31.11345910177951 29.592898556417452 28.074288601376395 26.55796384866472 25.044339378614932 23.533936216582084 22.02741702042516 20.52563702173282 19.029718272081514 17.541160386140586 16.06201001370854 14.595127662315589 13.144621146642354 11.716574009021393 10.320313742306718 8.970695222838923 7.692307692307691 6.527139518645051 5.547001962252291 4.865042554105197 4.615384615384613 4.8650425541052 5.547001962252291 6.527139518645056 7.692307692307696 8.970695222838923 10.320313742306723 11.7165740090214 13.144621146642354 14.595127662315596 16.06201001370854 17.541160386140582 19.029718272081517 20.52563702173282 22.02741702042517 23.533936216582088 25.044339378614932 26.557963848664727 28.0742886013764 29.59289855641745 31.11345910177952 32.63569759322528 34.15938970949925 35.6843492453637 37.210420376762535 38.737471729274375 40.26539177939202 41.79408525294193 43.32347027793453 44.85347611419462 46.38404132825027 47.91511231506903 49.44664209227137 
49.32682935963507 47.791460206181746 46.256296548839714 44.72135954999579 43.18667337728677 41.65226575594118 40.118168647400914 38.58441908918293 37.05106024243783 35.51814270958522 33.98572620673003 32.453881707275364 30.922694218833502 29.392266422373538 27.862723501961277 26.334219644036445 24.80694691784169 23.28114761603316 21.757131728816848 20.235302212255235 18.7161924009176 17.20052290384454 15.689290811054724 14.183914549681358 12.686478848054339 11.200169060431563 9.730085108210393 8.284868934053083 6.880209161537812 5.5470019622522875 4.351426345763369 3.440104580768905 3.076923076923073 3.440104580768908 4.351426345763369 5.547001962252293 6.8802091615378185 8.284868934053083 9.7300851082104 11.20016906043157 12.686478848054339 14.183914549681365 15.689290811054724 17.200522903844533 18.716192400917603 20.235302212255238 21.757131728816855 23.281147616033167 24.80694691784169 26.33421964403645 27.86272350196128 29.392266422373535 30.922694218833513 32.45388170727538 33.98572620673003 35.51814270958522 37.05106024243783 38.58441908918294 40.11816864740093 41.65226575594119 43.18667337728677 44.72135954999579 46.25629654883973 47.791460206181746 49.32682935963506 
49.25480182640653 47.71711513621791 46.17948006093426 44.64190193399048 43.104386849605845 41.566941803403985 40.029574865408264 38.4922953944517 36.95511430604404 35.41804440991181 33.881100839300366 32.344301602505595 30.807668299231974 29.271227062216074 27.735009811261452 26.199055947579076 24.66341467981753 23.128148274419857 21.593336688643387 20.059084323700453 18.525530121218917 16.992863103365018 15.461347109416756 13.931361750980633 12.403473458920844 10.87856586440842 9.358096200458794 7.844645405527361 6.343239424027168 4.865042554105195 3.440104580768908 2.175713172881682 1.538461538461533 2.175713172881687 3.440104580768908 4.865042554105202 6.343239424027175 7.844645405527361 9.358096200458801 10.878565864408428 12.403473458920844 13.93136175098064 15.461347109416756 16.992863103365014 18.52553012121892 20.059084323700457 21.593336688643394 23.128148274419864 24.66341467981753 26.199055947579087 27.735009811261456 29.27122706221607 30.80766829923198 32.34430160250561 33.88110083930036 35.41804440991181 36.95511430604404 38.49229539445171 40.02957486540828 41.566941803404 43.104386849605845 44.64190193399048 46.17948006093427 47.71711513621791 49.25480182640652 
49.23076923076923 47.69230769230769 46.15384615384615 44.61538461538461 43.07692307692308 41.53846153846154 40.0 38.46153846153846 36.92307692307692 35.38461538461539 33.84615384615385 32.30769230769231 30.769230769230766 29.23076923076923 27.69230769230769 26.153846153846153 24.615384615384613 23.076923076923077 21.53846153846154 19.999999999999996 18.461538461538463 16.923076923076927 15.384615384615387 13.84615384615384 12.307692307692307 10.769230769230766 9.230769230769226 7.692307692307693 6.153846153846153 4.615384615384613 3.07692307692308 1.53846153846154 0.0 1.5384615384615472 3.07692307692308 4.61538461538462 6.15384615384616 7.692307692307693 9.230769230769234 10.769230769230774 12.307692307692307 13.846153846153847 15.384615384615387 16.92307692307692 18.461538461538467 20.0 21.538461538461547 23.07692307692308 24.615384615384613 26.15384615384616 27.692307692307693 29.230769230769226 30.769230769230774 32.30769230769232 33.84615384615384 35.38461538461539 36.92307692307692 38.46153846153847 40.000000000000014 41.53846153846155 43.07692307692308 44.61538461538461 46.15384615384616 47.69230769230769 49.230769230769226 
49.25480182640653 47.71711513621791 46.17948006093426 44.64190193399049 43.10438684960585 41.56694180340399 40.02957486540827 38.4922953944517 36.95511430604404 35.418044409911815 33.88110083930037 32.344301602505595 30.807668299231974 29.271227062216074 27.735009811261452 26.199055947579076 24.66341467981753 23.128148274419857 21.593336688643387 20.059084323700457 18.52553012121892 16.99286310336502 15.461347109416756 13.931361750980635 12.403473458920846 10.878565864408422 9.358096200458798 7.8446454055273644 6.343239424027172 4.8650425541052 3.440104580768914 2.175713172881692 1.5384615384615472 2.175713172881697 3.440104580768914 4.865042554105206 6.343239424027178 7.8446454055273644 9.358096200458803 10.87856586440843 12.403473458920846 13.931361750980642 15.461347109416756 16.992863103365014 18.525530121218925 20.059084323700457 21.593336688643394 23.128148274419864 24.66341467981753 26.199055947579087 27.735009811261456 29.27122706221607 30.80766829923198 32.34430160250561 33.881100839300366 35.418044409911815 36.95511430604404 38.49229539445171 40.029574865408286 41.566941803404 43.10438684960585 44.64190193399049 46.17948006093427 47.71711513621791 49.25480182640652 
49.32682935963507 47.791460206181746 46.256296548839714 44.72135954999579 43.18667337728677 41.65226575594118 40.118168647400914 38.58441908918293 37.05106024243783 35.51814270958522 33.98572620673003 32.453881707275364 30.922694218833506 29.392266422373538 27.86272350196128 26.334219644036445 24.806946917841692 23.281147616033163 21.757131728816848 20.235302212255238 18.716192400917603 17.20052290384454 15.689290811054725 14.18391454968136 12.686478848054339 11.200169060431564 9.730085108210394 8.284868934053085 6.880209161537816 5.547001962252291 4.351426345763374 3.440104580768911 3.07692307692308 3.440104580768914 4.351426345763374 5.547001962252297 6.880209161537822 8.284868934053085 9.730085108210401 11.200169060431572 12.686478848054339 14.183914549681367 15.689290811054725 17.200522903844533 18.716192400917606 20.235302212255238 21.757131728816855 23.28114761603317 24.806946917841692 26.334219644036455 27.862723501961284 29.392266422373535 30.922694218833513 32.45388170727538 33.98572620673003 35.51814270958522 37.05106024243783 38.58441908918294 40.11816864740093 41.65226575594119 43.18667337728677 44.72135954999579 46.25629654883973 47.791460206181746 49.32682935963506 
49.446642092271375 47.91511231506903 46.38404132825026 44.85347611419462 43.32347027793453 41.794085252941926 40.265391779392004 38.737471729274375 37.210420376762535 35.6843492453637 34.15938970949926 32.63569759322527 31.11345910177951 29.592898556417452 28.074288601376395 26.55796384866472 25.044339378614932 23.533936216582084 22.02741702042516 20.52563702173282 19.029718272081514 17.541160386140586 16.06201001370854 14.595127662315589 13.144621146642354 11.716574009021393 10.320313742306718 8.970695222838923 7.692307692307691 6.527139518645051 5.547001962252291 4.865042554105197 4.615384615384613 4.8650425541052 5.547001962252291 6.527139518645056 7.692307692307696 8.970695222838923 10.320313742306723 11.7165740090214 13.144621146642354 14.595127662315596 16.06201001370854 17.541160386140582 19.029718272081517 20.52563702173282 22.02741702042517 23.533936216582088 25.044339378614932 26.557963848664727 28.0742886013764 29.59289855641745 31.11345910177952 32.63569759322528 34.15938970949925 35.6843492453637 37.210420376762535 38.737471729274375 40.26539177939202 41.79408525294193 43.32347027793453 44.85347611419462 46.38404132825027 47.91511231506903 49.44664209227137 
49.613893835683385 48.087691101808566 46.562295232066326 45.03778821016753 43.514263457633696 41.991827889095944 40.470604424510476 38.95073508052973 37.43238480183519 35.91574624593463 34.40104580768907 32.88855127143377 31.378581622109444 29.871519752227076 28.36782909936273 26.868075687035358 25.372957696108678 23.88334568655388 22.400338120863136 20.925339244208374 19.4601702164208 18.00723063187635 16.56973786810617 15.152088925840157 13.760418323075632 12.403473458920846 11.094003924504582 9.850960365281312 8.702852691526743 7.692307692307696 6.880209161537822 6.3432394240271766 6.15384615384616 6.343239424027178 6.880209161537822 7.6923076923077005 8.702852691526749 9.850960365281312 11.09400392450459 12.403473458920853 13.760418323075632 15.152088925840165 16.56973786810617 18.007230631876347 19.460170216420803 20.925339244208377 22.400338120863143 23.883345686553888 25.372957696108678 26.868075687035365 28.367829099362734 29.871519752227073 31.37858162210945 32.88855127143378 34.401045807689066 35.91574624593463 37.43238480183519 38.95073508052974 40.47060442451049 41.99182788909595 43.514263457633696 45.03778821016753 46.56229523206634 48.087691101808566 49.613893835683385 
49.82810689446661 48.30867220956179 46.790481002293994 45.27365836788358 43.758346625624284 42.24470836229533 40.732930138073 39.2232270276368 37.715848221942345 36.21108398750714 34.70927437747224 33.21082022295831 31.71619712013585 30.225973391366924 28.74083337272216 27.261607917952848 25.789314791138786 24.325212770525997 22.870874995874626 21.42828965720634 20.000000000000007 18.58930149783781 17.20052290384454 15.839430986133845 14.513817126240934 13.234346564680967 12.015768732164085 10.87856586440843 9.850960365281312 8.97069522283893 8.284868934053092 7.84464540552737 7.6923076923077005 7.8446454055273716 8.284868934053092 8.970695222838934 9.850960365281317 10.87856586440843 12.01576873216409 13.234346564680973 14.513817126240934 15.839430986133852 17.20052290384454 18.589301497837802 20.000000000000007 21.428289657206342 22.870874995874633 24.325212770526 25.789314791138786 27.26160791795286 28.740833372722165 30.22597339136692 31.716197120135856 33.210820222958326 34.709274377472234 36.21108398750714 37.715848221942345 39.22322702763681 40.732930138073016 42.244708362295334 43.758346625624284 45.27365836788358 46.79048100229401 48.30867220956179 49.8281068944666 
50.088678757229864 48.57739508875983 47.06787243316417 45.56028583064876 44.05483404085032 42.5517436490441 41.05127404346564 39.55372348363828 38.05943654416301 36.568813304629884 35.082320772281165 33.600507181294695 32.124020027417075 30.65362899257119 29.190255324631188 27.735009811261452 26.28924229328471 24.854606802159246 23.433148018042793 22.027417020425155 20.640627484613443 19.276867824833335 17.941390445677847 16.641005886756865 15.384615384615381 14.183914549681361 13.054279037290103 12.01576873216408 11.094003924504579 10.320313742306718 9.730085108210394 9.358096200458796 9.230769230769226 9.358096200458798 9.730085108210394 10.32031374230672 11.094003924504582 12.01576873216408 13.054279037290108 14.183914549681365 15.384615384615381 16.641005886756872 17.941390445677847 19.27686782483333 20.640627484613447 22.02741702042516 23.4331480180428 24.85460680215925 26.28924229328471 27.73500981126146 29.19025532463119 30.653628992571186 32.12402002741708 33.60050718129471 35.082320772281165 36.568813304629884 38.05943654416301 39.55372348363829 41.051274043465654 42.551743649044106 44.05483404085032 45.56028583064876 47.067872433164176 48.57739508875983 50.088678757229864 
50.39489032048985 48.89307256021755 47.39360554076727 45.89671966208091 44.402675968190195 42.91177132609648 41.42434467026542 39.940784571529754 38.46153846153846 36.987123938988645 35.51814270958522 34.0552978787364 32.59941553910321 31.15147189433321 29.712627562812255 28.284271247461902 26.868075687035354 25.46606978037977 24.080732065382353 22.715112400359075 21.372990752999705 20.059084323700464 18.77931633189801 17.541160386140582 16.354070481130233 15.229992210171794 14.183914549681365 13.234346564680969 12.403473458920848 11.7165740090214 11.200169060431572 10.878565864408428 10.769230769230774 10.87856586440843 11.200169060431572 11.716574009021404 12.403473458920853 13.234346564680969 14.18391454968137 15.2299922101718 16.354070481130233 17.541160386140586 18.77931633189801 20.059084323700457 21.372990752999705 22.71511240035908 24.08073206538236 25.466069780379772 26.868075687035354 28.28427124746191 29.71262756281226 31.151471894333206 32.59941553910322 34.05529787873641 35.51814270958521 36.987123938988645 38.46153846153846 39.94078457152976 41.424344670265434 42.911771326096485 44.402675968190195 45.89671966208091 47.39360554076728 48.89307256021755 50.39489032048984 
50.74591539221736 49.25480182640653 47.76669137310776 46.28187371228099 44.800676241726265 43.32347027793453 41.85067848841675 40.38278384125134 38.920340432841584 37.46398665195668 36.01446126375269 34.57262316037574 33.139475736212326 31.71619712013585 30.30417785168032 28.905068043162977 27.520836646151256 26.153846153846153 24.806946917841692 23.48359618842115 22.188007849009168 20.925339244208377 19.701920730562613 18.52553012121891 17.405705383053476 16.35407048113023 15.384615384615381 14.513817126240928 13.760418323075628 13.144621146642354 12.686478848054339 12.403473458920846 12.307692307692307 12.403473458920846 12.686478848054339 13.144621146642358 13.760418323075632 14.513817126240928 15.384615384615385 16.354070481130233 17.405705383053476 18.525530121218914 19.701920730562613 20.92533924420837 22.188007849009168 23.48359618842115 24.806946917841696 26.153846153846157 27.520836646151256 28.905068043162984 30.304177851680322 31.716197120135845 33.13947573621233 34.57262316037575 36.014461263752686 37.46398665195668 38.920340432841584 40.382783841251346 41.85067848841676 43.32347027793454 44.800676241726265 46.28187371228099 47.766691373107776 49.25480182640653 50.745915392217356 
51.14083119567589 49.661576589442994 48.18603004112562 46.71454292519685 45.2475112918546 43.78538298694679 42.32866612983879 40.877939247958224 39.433863439927066 37.99719703147222 36.568813304629884 35.14972202706419 33.74109569147894 32.344301602505595 30.960941226920166 29.592898556417456 28.242399616439723 26.912085668516774 25.605103041681907 24.325212770525997 23.076923076923084 21.865646774695232 20.697883149344175 19.581418555935162 18.52553012121892 17.54116038614059 16.64100588675688 15.839430986133854 15.152088925840168 14.595127662315603 14.183914549681372 13.931361750980649 13.846153846153854 13.931361750980649 14.183914549681372 14.595127662315607 15.152088925840172 15.839430986133854 16.641005886756883 17.541160386140593 18.52553012121892 19.581418555935166 20.697883149344175 21.865646774695225 23.076923076923087 24.325212770526 25.605103041681918 26.912085668516777 28.242399616439723 29.592898556417463 30.96094122692017 32.344301602505595 33.74109569147895 35.14972202706421 36.568813304629884 37.99719703147222 39.433863439927066 40.87793924795823 42.3286661298388 43.7853829869468 45.2475112918546 46.71454292519685 48.186030041125626 49.661576589442994 51.14083119567588 
51.57862958227757 50.1122999227764 48.65042554105199 47.19342046208605 45.74174999174925 44.29593861196298 42.85657931441268 41.42434467026541 40.0 38.58441908918294 37.178602995675604 35.78370261419387 34.401045807689066 33.03217008243675 31.678861972267693 30.34320449740926 29.027634252481857 27.735009811261456 26.46869312936193 25.23264533362573 24.03153746432817 22.870874995874626 21.757131728816848 20.697883149344165 19.701920730562613 18.779316331898006 17.941390445677847 17.200522903844536 16.569737868106166 16.06201001370854 15.689290811054725 15.461347109416756 15.384615384615387 15.461347109416756 15.689290811054725 16.06201001370854 16.56973786810617 17.200522903844536 17.94139044567785 18.77931633189801 19.701920730562613 20.69788314934417 21.757131728816848 22.870874995874622 24.031537464328174 25.232645333625733 26.468693129361938 27.73500981126146 29.027634252481857 30.34320449740927 31.678861972267697 33.03217008243675 34.40104580768907 35.78370261419388 37.178602995675604 38.58441908918294 40.0 41.42434467026542 42.85657931441269 44.29593861196299 45.74174999174925 47.19342046208605 48.650425541052 50.1122999227764 51.578629582277564 
52.058228663657324 50.60579754891855 49.15860094975526 47.71711513621792 46.281873712281005 44.85347611419463 43.43259757997878 42.02000087306973 40.616550099827954 39.22322702763682 37.84115038845798 36.471598741937534 35.11603757081024 33.77615138476946 32.453881707275364 31.151471894333216 29.87151975222708 28.617038827289658 27.391528945792093 26.199055947579083 25.044339378614943 23.932844901698545 22.870874995874633 21.86564677469523 20.925339244208384 20.059084323700464 19.276867824833342 18.589301497837813 18.007230631876357 17.541160386140596 17.200522903844547 16.99286310336503 16.923076923076934 16.99286310336503 17.200522903844547 17.541160386140596 18.00723063187636 18.589301497837813 19.276867824833346 20.05908432370047 20.925339244208384 21.865646774695232 22.870874995874633 23.932844901698537 25.044339378614946 26.199055947579087 27.3915289457921 28.61703882728966 29.87151975222708 31.151471894333223 32.45388170727537 33.77615138476946 35.11603757081024 36.47159874193755 37.841150388457976 39.22322702763682 40.616550099827954 42.02000087306974 43.4325975799788 44.853476114194635 46.281873712281005 47.71711513621792 49.15860094975527 50.60579754891855 52.058228663657324 
52.57848458656943 51.14083119567588 49.7092136043185 48.28416869684682 46.86629603608559 45.45626677752048 44.05483404085032 42.662844996498606 41.281254969226886 39.91114391099338 38.55373564966667 37.21042037676254 35.882780891355694 34.57262316037575 33.282011773513744 32.01331084105356 30.76923076923077 29.55288109584392 28.367829099362734 27.218163096852514 26.108558074580223 25.04433937861494 24.031537464328174 23.076923076923077 22.188007849009168 21.3729907529997 20.640627484613447 20.000000000000007 19.460170216420803 19.029718272081517 18.716192400917606 18.52553012121892 18.461538461538467 18.525530121218925 18.716192400917606 19.029718272081517 19.460170216420803 20.000000000000007 20.64062748461345 21.372990752999705 22.188007849009168 23.07692307692308 24.031537464328174 25.044339378614936 26.108558074580223 27.218163096852514 28.36782909936274 29.552881095843922 30.76923076923077 32.01331084105357 33.28201177351375 34.57262316037574 35.8827808913557 37.21042037676255 38.55373564966666 39.91114391099338 41.281254969226886 42.66284499649861 44.05483404085033 45.4562667775205 46.86629603608559 48.28416869684682 49.709213604318506 51.14083119567588 52.57848458656942 
53.13820319744783 51.71611173529726 50.300869920836355 48.89307256021755 47.49338166287117 46.10253558083599 44.721359549995796 43.350777857247294 41.99182788909594 40.64567634960895 39.313637966709656 37.99719703147221 36.69803212885096 35.41804440991181 34.15938970949926 32.92451470620414 31.71619712013585 30.537589601968012 29.392266422373538 28.2842712474619 27.218163096852514 26.199055947579083 25.232645333625733 24.32521277052599 23.48359618842115 22.715112400359075 22.02741702042516 21.42828965720634 20.925339244208374 20.52563702173282 20.235302212255238 20.059084323700457 20.0 20.059084323700457 20.235302212255238 20.525637021732823 20.925339244208377 21.42828965720634 22.02741702042516 22.71511240035908 23.48359618842115 24.325212770525994 25.232645333625733 26.199055947579076 27.218163096852514 28.284271247461902 29.392266422373545 30.537589601968016 31.71619712013585 32.92451470620415 34.15938970949926 35.41804440991181 36.69803212885097 37.997197031472226 39.31363796670965 40.64567634960895 41.99182788909594 43.3507778572473 44.7213595499958 46.102535580836005 47.49338166287117 48.89307256021755 50.30086992083636 51.71611173529726 53.13820319744782 
53.736151374070715 52.330311851369075 50.93213956075954 49.54228365570652 48.161464130764706 46.790481002294 45.43022480071816 44.08168855967509 42.7459815059994 41.42434467026542 40.11816864740092 38.82901373576605 37.55863266379601 36.30899606524907 35.08232077228117 33.88110083930037 32.708140962260465 31.56659158258953 30.45998442034359 29.39226642237354 28.367829099362737 27.391528945792096 26.468693129361938 25.605103041681907 24.806946917841696 24.08073206538236 23.4331480180428 22.870874995874633 22.40033812086314 22.02741702042517 21.757131728816855 21.593336688643394 21.538461538461547 21.593336688643394 21.757131728816855 22.02741702042517 22.400338120863143 22.870874995874633 23.433148018042804 24.08073206538236 24.806946917841696 25.605103041681915 26.468693129361938 27.39152894579209 28.36782909936274 29.392266422373545 30.4599844203436 31.566591582589535 32.708140962260465 33.88110083930038 35.08232077228117 36.30899606524907 37.55863266379602 38.829013735766054 40.118168647400914 41.42434467026542 42.7459815059994 44.081688559675094 45.43022480071817 46.79048100229401 48.161464130764706 49.54228365570652 50.932139560759545 52.330311851369075 53.73615137407071 
54.37106783714552 52.98207802376174 51.60156871153361 50.230239130198484 48.86886207467259 47.518292958401545 46.17948006093426 44.85347611419462 43.54145137872278 42.24470836229533 40.96469832521338 39.70303969404289 38.46153846153846 37.242210575108324 36.04730619649225 34.87933553462965 33.74109569147894 32.635697593225274 31.566591582589528 30.537589601968012 29.552881095843922 28.617038827289658 27.73500981126146 26.91208566851677 26.153846153846157 25.46606978037977 24.85460680215925 24.325212770526 23.883345686553888 23.533936216582088 23.28114761603317 23.128148274419864 23.07692307692308 23.128148274419864 23.28114761603317 23.533936216582088 23.883345686553888 24.325212770526 24.854606802159253 25.466069780379772 26.153846153846157 26.912085668516774 27.73500981126146 28.617038827289655 29.552881095843922 30.537589601968016 31.566591582589535 32.635697593225274 33.74109569147894 34.87933553462965 36.04730619649225 37.242210575108324 38.46153846153847 39.70303969404291 40.96469832521338 42.24470836229533 43.54145137872278 44.85347611419463 46.179480060934274 47.51829295840155 48.86886207467259 50.230239130198484 51.601568711533616 52.98207802376174 54.37106783714551 
55.04167329230251 53.67004166926895 52.30769230769231 50.955369728243674 49.613893835683385 48.28416869684682 46.9671923768423 45.66406793740256 44.37601569801833 43.104386849605845 41.85067848841675 40.616550099827954 39.40384146112522 38.214591841151446 37.05106024243783 35.91574624593462 34.81141076610695 33.74109569147893 32.70814096226046 31.716197120135845 30.76923076923077 29.871519752227076 29.027634252481857 28.242399616439716 27.520836646151256 26.86807568703535 26.28924229328471 25.789314791138782 25.372957696108678 25.044339378614932 24.806946917841692 24.66341467981753 24.615384615384613 24.66341467981753 24.806946917841692 25.044339378614932 25.372957696108678 25.789314791138782 26.28924229328471 26.868075687035354 27.520836646151256 28.24239961643972 29.027634252481857 29.871519752227073 30.76923076923077 31.71619712013585 32.708140962260465 33.74109569147894 34.81141076610695 35.91574624593463 37.05106024243783 38.214591841151446 39.403841461125225 40.61655009982797 41.85067848841674 43.104386849605845 44.37601569801833 45.66406793740256 46.96719237684231 48.28416869684682 49.613893835683385 50.955369728243674 52.307692307692314 53.67004166926895 55.04167329230251 
55.74667979074905 54.39282932204212 53.049045075589746 51.71611173529727 50.39489032048985 49.08632656475021 47.791460206181746 46.51143525486454 45.24751129185459 44.00107583407721 42.773657767562604 41.56694180340399 40.382783841251346 39.22322702763681 38.09051816350753 36.987123938988645 35.91574624593463 34.87933553462965 33.88110083930038 32.92451470620415 32.01331084105357 31.151471894333216 30.34320449740927 29.59289855641746 28.905068043162984 28.284271247461906 27.73500981126146 27.261607917952855 26.86807568703536 26.557963848664727 26.334219644036455 26.199055947579087 26.15384615384616 26.199055947579087 26.334219644036455 26.557963848664727 26.868075687035365 27.261607917952855 27.735009811261467 28.28427124746191 28.905068043162984 29.59289855641746 30.34320449740927 31.151471894333213 32.01331084105357 32.92451470620415 33.88110083930038 34.87933553462965 35.91574624593463 36.98712393898865 38.09051816350754 39.22322702763681 40.38278384125135 41.566941803404006 42.7736577675626 44.00107583407721 45.24751129185459 46.511435254864544 47.79146020618176 49.086326564750216 50.39489032048985 51.71611173529727 53.04904507558975 54.39282932204212 55.74667979074904 
56.48479923287945 55.14907178133822 53.82417133703355 52.510917433464655 51.210206083363815 49.92301766027063 48.650425541052 47.393605540767275 46.15384615384616 44.93255958926227 43.73129354939046 42.551743649044106 41.39576629868835 40.26539177939201 39.16283711187033 38.09051816350754 37.05106024243784 36.047306196492265 35.08232077228118 34.15938970949927 33.28201177351376 32.45388170727538 31.678861972267708 30.960941226920173 30.304177851680336 29.71262756281227 29.190255324631206 28.740833372722175 28.367829099362744 28.074288601376413 27.862723501961298 27.73500981126147 27.692307692307708 27.73500981126147 27.862723501961298 28.074288601376413 28.367829099362744 28.740833372722175 29.19025532463121 29.71262756281227 30.304177851680336 30.96094122692018 31.678861972267708 32.45388170727538 33.282011773513766 34.15938970949927 35.082320772281186 36.047306196492265 37.05106024243784 38.09051816350755 39.16283711187033 40.26539177939201 41.39576629868835 42.55174364904411 43.73129354939045 44.93255958926227 46.15384615384616 47.39360554076728 48.65042554105201 49.92301766027064 51.210206083363815 52.510917433464655 53.824171337033555 55.14907178133822 56.484799232879446 
57.25475097208737 55.93741219291643 54.63163355250678 53.33826407187605 52.058228663657324 50.79253544375132 49.54228365570652 48.308672209561784 47.09300881542758 45.89671966208091 44.72135954999579 43.56862233386552 42.44035145887298 41.338550284752 40.265391779392 39.2232270276368 38.214591841151446 37.24221057510832 36.30899606524906 35.41804440991181 34.57262316037574 33.776151384769456 33.03217008243675 32.34430160250559 31.716197120135845 31.151471894333206 30.653628992571186 30.22597339136692 29.87151975222707 29.59289855641745 29.392266422373535 29.27122706221607 29.230769230769226 29.27122706221607 29.392266422373535 29.59289855641745 29.871519752227073 30.22597339136692 30.65362899257119 31.151471894333206 31.716197120135845 32.344301602505595 33.03217008243675 33.776151384769456 34.57262316037574 35.41804440991181 36.30899606524907 37.242210575108324 38.214591841151446 39.22322702763681 40.265391779392 41.338550284752 42.44035145887299 43.568622333865534 44.72135954999578 45.89671966208091 47.09300881542758 48.30867220956179 49.54228365570653 50.79253544375132 52.058228663657324 53.33826407187605 54.631633552506784 55.93741219291643 57.254750972087365 
58.05526850496372 56.756513063682206 55.47001962252291 54.19666139633396 52.93738625872386 51.69322343511214 50.465290667251466 49.25480182640653 48.063074928656334 46.89154047424053 45.74174999174925 44.61538461538461 43.514263457633696 42.44035145887299 41.39576629868834 40.382783841251346 39.403841461125225 38.46153846153846 37.55863266379601 36.69803212885096 35.8827808913557 35.11603757081024 34.40104580768907 33.74109569147894 33.13947573621233 32.59941553910322 32.12402002741708 31.716197120135856 31.37858162210945 31.11345910177952 30.922694218833513 30.80766829923198 30.769230769230774 30.80766829923198 30.922694218833513 31.11345910177952 31.37858162210945 31.716197120135856 32.12402002741708 32.59941553910322 33.13947573621233 33.74109569147894 34.40104580768907 35.11603757081024 35.8827808913557 36.69803212885097 37.55863266379602 38.46153846153847 39.403841461125225 40.38278384125135 41.39576629868834 42.44035145887299 43.514263457633696 44.61538461538463 45.741749991749245 46.89154047424053 48.063074928656334 49.254801826406535 50.46529066725147 51.69322343511214 52.93738625872386 54.19666139633396 55.47001962252292 56.756513063682206 58.05526850496371 
58.88510525847581 57.605062236458636 56.33794899569402 55.08465781528664 53.846153846153854 52.62348115842176 51.417769129441254 50.23023913019849 49.062211443390694 47.915112315069045 46.79048100229401 45.68997663051539 44.61538461538462 43.568622333865534 42.5517436490441 41.566941803404 40.61655009982797 39.7030396940429 38.82901373576605 37.99719703147222 37.21042037676255 36.47159874193755 35.78370261419388 35.1497220270642 34.57262316037575 34.055297878736404 33.60050718129471 33.210820222958326 32.88855127143378 32.63569759322528 32.45388170727538 32.34430160250561 32.30769230769232 32.34430160250561 32.45388170727538 32.63569759322528 32.88855127143378 33.210820222958326 33.60050718129471 34.05529787873641 34.57262316037575 35.14972202706421 35.78370261419388 36.47159874193754 37.21042037676255 37.997197031472226 38.829013735766054 39.70303969404291 40.61655009982797 41.566941803404006 42.551743649044106 43.568622333865534 44.61538461538463 45.689976630515396 46.790481002294 47.915112315069045 49.062211443390694 50.2302391301985 51.41776912944126 52.62348115842177 53.846153846153854 55.08465781528664 56.33794899569403 57.605062236458636 58.88510525847581 
59.743039504454146 58.48177787307142 57.2340776545793 56.00084530215783 54.78305789158417 53.58176851467076 52.39811189515815 51.23331017029757 50.08867875722986 48.965632193352455 47.86568980339706 46.790481002293994 45.74174999174924 44.72135954999579 43.731293549390436 42.77365776756259 41.85067848841674 40.96469832521337 40.11816864740091 39.31363796670964 38.55373564966666 37.841150388457976 37.178602995675604 36.56881330462988 36.014461263752686 35.51814270958521 35.082320772281165 34.709274377472234 34.401045807689066 34.15938970949925 33.98572620673003 33.881100839300366 33.84615384615384 33.881100839300366 33.98572620673003 34.15938970949925 34.401045807689066 34.709274377472234 35.082320772281165 35.51814270958521 36.014461263752686 36.56881330462988 37.178602995675604 37.84115038845797 38.55373564966666 39.31363796670965 40.118168647400914 40.96469832521338 41.85067848841674 42.7736577675626 43.73129354939044 44.72135954999578 45.741749991749245 46.790481002294 47.86568980339705 48.965632193352455 50.08867875722986 51.23331017029758 52.398111895158166 53.58176851467077 54.78305789158417 56.00084530215783 57.23407765457931 58.48177787307142 59.743039504454146 
60.62787844688626 59.38541250959625 58.1571020659563 56.9438631486823 55.74667979074905 54.56660877220985 53.40478448526087 52.26242385065547 51.14083119567588 50.041402976278754 48.965632193352455 47.91511231506904 46.89154047424052 45.89671966208092 44.932559589262254 44.001075834077206 43.104386849605845 42.24470836229533 41.42434467026542 40.64567634960894 39.91114391099338 39.22322702763681 38.58441908918294 37.99719703147221 37.46398665195668 36.98712393898864 36.568813304629884 36.21108398750714 35.91574624593463 35.6843492453637 35.51814270958522 35.418044409911815 35.38461538461539 35.418044409911815 35.51814270958522 35.6843492453637 35.91574624593463 36.21108398750714 36.568813304629884 36.987123938988645 37.46398665195668 37.99719703147221 38.58441908918294 39.22322702763681 39.91114391099338 40.64567634960895 41.42434467026542 42.24470836229533 43.104386849605845 44.00107583407721 44.93255958926226 45.89671966208091 46.89154047424053 47.915112315069045 48.965632193352455 50.041402976278754 51.14083119567588 52.26242385065548 53.404784485260876 54.566608772209854 55.74667979074905 56.9438631486823 58.15710206595631 59.38541250959625 60.62787844688624 
61.53846153846155 60.3147562581928 59.10576219168784 57.912400691442194 56.73565819872547 55.576590363656756 54.43632619370503 53.31607215742602 52.21711614916044 51.14083119567589 50.08867875722987 49.0622114433907 48.06307492865634 47.093008815427595 46.15384615384616 45.2475112918546 44.376015698018335 43.5414513787228 42.74598150599941 41.99182788909595 41.28125496922689 40.61655009982797 40.000000000000014 39.43386343992707 38.920340432841606 38.461538461538474 38.059436544163034 37.71584822194236 37.43238480183521 37.21042037676255 37.05106024243784 36.95511430604405 36.923076923076934 36.95511430604405 37.05106024243784 37.21042037676255 37.43238480183521 37.71584822194236 38.059436544163034 38.461538461538474 38.920340432841606 39.43386343992708 40.000000000000014 40.61655009982797 41.2812549692269 41.99182788909595 42.74598150599941 43.5414513787228 44.376015698018335 45.24751129185461 46.15384615384616 47.093008815427595 48.06307492865635 49.06221144339071 50.08867875722987 51.14083119567589 52.21711614916044 53.316072157426035 54.43632619370504 55.57659036365676 56.73565819872547 57.912400691442194 59.105762191687845 60.3147562581928 61.53846153846154 
62.47366308999062 61.2686392361227 60.078843660820425 58.90519913562046 57.74869039730296 56.61036767068954 55.4913501442198 54.39282932204212 53.31607215742602 52.26242385065548 51.23331017029758 50.23023913019849 49.25480182640653 48.30867220956179 47.39360554076727 46.51143525486454 45.66406793740256 44.85347611419462 44.08168855967509 43.350777857247294 42.66284499649861 42.02000087306974 41.42434467026542 40.877939247958224 40.382783841251346 39.940784571529754 39.55372348363829 39.22322702763681 38.95073508052974 38.737471729274375 38.58441908918294 38.49229539445171 38.46153846153847 38.49229539445171 38.58441908918294 38.737471729274375 38.95073508052974 39.22322702763681 39.55372348363829 39.94078457152976 40.382783841251346 40.877939247958224 41.42434467026542 42.02000087306973 42.66284499649861 43.3507778572473 44.081688559675094 44.85347611419463 45.66406793740256 46.511435254864544 47.393605540767275 48.30867220956179 49.254801826406535 50.2302391301985 51.23331017029758 52.26242385065548 53.31607215742602 54.392829322042125 55.49135014421981 56.61036767068954 57.74869039730296 58.90519913562046 60.07884366082043 61.2686392361227 62.47366308999062 
63.4323942402717 62.24593330505818 61.075179203936024 59.92105259738599 58.784532844747076 57.66666096612712 56.568542494923804 55.491350144219794 54.43632619370502 53.40478448526087 52.39811189515815 51.41776912944124 50.46529066725146 49.54228365570652 48.65042554105199 47.791460206181746 46.9671923768423 46.17948006093426 45.43022480071816 44.721359549995796 44.05483404085032 43.43259757997878 42.85657931441268 42.32866612983878 41.85067848841675 41.42434467026541 41.05127404346564 40.732930138073 40.470604424510476 40.265391779392004 40.118168647400914 40.02957486540827 40.0 40.02957486540827 40.118168647400914 40.265391779392004 40.470604424510476 40.732930138073 41.05127404346564 41.42434467026542 41.85067848841675 42.32866612983878 42.85657931441268 43.43259757997878 44.05483404085032 44.721359549995796 45.43022480071816 46.17948006093426 46.9671923768423 47.791460206181746 48.65042554105199 49.54228365570652 50.465290667251466 51.417769129441254 52.39811189515815 53.40478448526087 54.43632619370502 55.4913501442198 56.56854249492381 57.666660966127125 58.784532844747076 59.92105259738599 61.07517920393603 62.24593330505818 63.4323942402717 
64.41360435525638 63.24555320336759 62.093649448032515 60.95880848048908 59.84200104238993 58.7442556678055 57.666660966127125 56.61036767068954 55.576590363656756 54.566608772209854 53.58176851467077 52.62348115842176 51.69322343511214 50.792535443751326 49.923017660270624 49.086326564750216 48.28416869684682 47.518292958401545 46.79048100229401 46.102535580836 45.4562667775205 44.85347611419463 44.29593861196299 43.7853829869468 43.32347027793454 42.91177132609648 42.551743649044106 42.244708362295334 41.99182788909595 41.79408525294193 41.65226575594119 41.566941803404 41.53846153846155 41.566941803404 41.65226575594119 41.79408525294193 41.99182788909595 42.244708362295334 42.551743649044106 42.911771326096485 43.32347027793454 43.7853829869468 44.29593861196299 44.85347611419463 45.4562667775205 46.102535580836005 46.79048100229401 47.51829295840155 48.28416869684682 49.086326564750216 49.92301766027063 50.79253544375132 51.69322343511214 52.62348115842177 53.58176851467077 54.566608772209854 55.576590363656756 56.61036767068954 57.66666096612713 58.7442556678055 59.84200104238993 60.95880848048908 62.09364944803252 63.24555320336759 64.41360435525638 
65.41628192452093 64.2664571514013 63.13318316517905 62.01736729460423 60.919968840687176 59.842001042389924 58.784532844747076 57.74869039730295 56.73565819872546 55.74667979074905 54.78305789158417 53.84615384615385 52.937386258723855 52.058228663657324 51.21020608336381 50.39489032048985 49.613893835683385 48.86886207467259 48.161464130764706 47.49338166287117 46.86629603608559 46.281873712281 45.74174999174925 45.24751129185459 44.800676241726265 44.402675968190195 44.05483404085032 43.758346625624284 43.514263457633696 43.32347027793453 43.18667337728677 43.10438684960585 43.07692307692308 43.10438684960585 43.18667337728677 43.32347027793453 43.514263457633696 43.758346625624284 44.05483404085032 44.402675968190195 44.800676241726265 45.24751129185459 45.74174999174925 46.281873712281 46.86629603608559 47.49338166287117 48.161464130764706 48.86886207467259 49.613893835683385 50.39489032048985 51.210206083363815 52.058228663657324 52.93738625872386 53.846153846153854 54.78305789158417 55.74667979074905 56.73565819872546 57.74869039730296 58.78453284474709 59.84200104238993 60.919968840687176 62.01736729460423 63.133183165179055 64.2664571514013 65.41628192452092 
66.43945502058212 65.30764700551116 64.1927570616156 63.09568201356886 62.01736729460424 60.95880848048908 59.921052597385994 58.905199135620464 57.912400691442194 56.94386314868231 56.00084530215784 55.08465781528664 54.196661396333965 53.338264071876054 52.51091743346466 51.716111735297275 50.95536972824368 50.23023913019849 49.54228365570653 48.89307256021756 48.28416869684683 47.71711513621793 47.19342046208607 46.71454292519686 46.281873712281005 45.896719662080926 45.56028583064877 45.273658367883584 45.03778821016754 44.85347611419463 44.7213595499958 44.641901933990496 44.61538461538463 44.641901933990496 44.7213595499958 44.85347611419463 45.03778821016754 45.273658367883584 45.56028583064877 45.896719662080926 46.281873712281005 46.71454292519687 47.19342046208607 47.71711513621792 48.284168696846834 48.89307256021756 49.54228365570653 50.2302391301985 50.95536972824368 51.716111735297275 52.51091743346466 53.338264071876054 54.19666139633397 55.08465781528665 56.000845302157835 56.94386314868231 57.912400691442194 58.905199135620464 59.92105259738601 60.95880848048909 62.01736729460424 63.09568201356886 64.1927570616156 65.30764700551116 66.4394550205821 
67.48219138295788 66.36816803114768 65.27139518645055 64.1927570616156 63.133183165179055 62.093649448032515 61.07517920393603 60.078843660820425 59.10576219168784 58.15710206595631 57.23407765457931 56.33794899569402 55.47001962252292 54.631633552506784 53.82417133703355 53.04904507558975 52.307692307692314 51.601568711533616 50.932139560759545 50.30086992083636 49.709213604318506 49.15860094975526 48.650425541052 48.18603004112562 47.766691373107776 47.393605540767275 47.067872433164176 46.79048100229401 46.56229523206633 46.38404132825027 46.25629654883973 46.17948006093427 46.15384615384616 46.17948006093427 46.25629654883973 46.38404132825028 46.56229523206634 46.79048100229401 47.067872433164176 47.39360554076728 47.766691373107776 48.186030041125626 48.650425541052 49.15860094975526 49.709213604318506 50.30086992083636 50.932139560759545 51.601568711533616 52.307692307692314 53.04904507558975 53.82417133703355 54.631633552506784 55.47001962252292 56.33794899569403 57.23407765457931 58.15710206595631 59.10576219168784 60.07884366082043 61.07517920393604 62.09364944803252 63.133183165179055 64.1927570616156 65.27139518645055 66.36816803114768 67.48219138295788 
68.54359818444759 67.44710835933223 66.36816803114768 65.30764700551116 64.26645715140131 63.2455532033676 62.245933305058195 61.26863923612271 60.3147562581928 59.385412509596264 58.48177787307144 57.605062236458636 56.75651306368221 55.93741219291645 55.14907178133823 54.392829322042125 53.670041669268954 52.982078023761744 52.33031185136909 51.716111735297275 51.140831195675894 50.60579754891856 50.112299922776415 49.661576589443 49.25480182640654 48.89307256021756 48.57739508875984 48.308672209561806 48.08769110180857 47.915112315069045 47.79146020618176 47.71711513621793 47.69230769230771 47.71711513621793 47.79146020618176 47.91511231506905 48.08769110180858 48.308672209561806 48.57739508875984 48.89307256021756 49.25480182640654 49.66157658944301 50.112299922776415 50.60579754891855 51.1408311956759 51.716111735297275 52.33031185136909 52.98207802376175 53.670041669268954 54.39282932204213 55.14907178133823 55.93741219291645 56.75651306368222 57.60506223645864 58.48177787307143 59.385412509596264 60.3147562581928 61.26863923612271 62.2459333050582 63.2455532033676 64.26645715140131 65.30764700551116 66.36816803114769 67.44710835933223 68.54359818444759 
69.6228215322139 68.54359818444757 67.48219138295786 66.4394550205821 65.41628192452092 64.41360435525637 63.4323942402717 62.473663089990616 61.53846153846153 60.62787844688624 59.743039504454146 58.885105258475804 58.05526850496371 57.254750972087365 56.48479923287944 55.746679790749035 55.04167329230251 54.37106783714551 53.73615137407071 53.13820319744782 52.57848458656942 52.058228663657324 51.578629582277564 51.14083119567587 50.745915392217356 50.39489032048984 50.088678757229864 49.8281068944666 49.61389383568338 49.44664209227137 49.32682935963506 49.25480182640652 49.230769230769226 49.25480182640652 49.32682935963506 49.446642092271375 49.613893835683385 49.8281068944666 50.088678757229864 50.39489032048984 50.745915392217356 51.14083119567588 51.578629582277564 52.05822866365732 52.57848458656942 53.13820319744782 53.73615137407071 54.37106783714551 55.04167329230251 55.74667979074904 56.48479923287944 57.254750972087365 58.05526850496371 58.88510525847581 59.743039504454146 60.62787844688624 61.53846153846153 62.47366308999062 63.432394240271705 64.41360435525638 65.41628192452092 66.4394550205821 67.48219138295788 68.54359818444757 69.6228215322139 
